0.312134, -0.030292, 0.336182
0.320831, -0.057819, 0.324927
0.314915, -0.053260, 0.291795
0.327411, -0.058048, 0.243442
0.316453, 0.011393, 0.244472
0.284413, 0.018617, 0.240855
0.291910, 0.013509, 0.251324
0.376358, -0.122724, 0.047303
0.342968, -0.067793, 0.132131
0.334731, -0.065323, 0.213631
0.325048, 0.013929, 0.159723
0.313563, -0.047911, 0.193592
0.357546, -0.089546, 0.102168
0.323724, -0.060814, 0.227538
0.317694, -0.057599, 0.201206
0.361729, -0.035936, 0.256150
0.315433, -0.007407, -0.344990
0.323996, 0.021423, -0.285560
0.297331, 0.019150, -0.024438
0.318854, -0.054696, 0.304928
0.338102, -0.063517, 0.210735
0.347076, -0.078510, 0.212698
0.336626, -0.066264, 0.219918
0.334413, -0.063329, 0.186408
0.351649, -0.087054, 0.188380
0.361394, -0.098690, 0.157069
0.344212, -0.074496, 0.231772
0.308864, -0.063780, 0.206872
0.318649, -0.020931, 0.100367
0.350324, 0.017862, 0.283874
0.323055, -0.022759, 0.070548
0.335630, -0.066850, 0.221998
0.317477, -0.044468, 0.126636
0.345827, -0.073394, 0.163061
0.321119, -0.053409, 0.138459
0.290727, 0.012581, 0.253784
0.333025, -0.028819, 0.243545
0.347176, -0.033130, 0.253304
0.248131, 0.010451, 0.370564
0.399637, -0.085499, 0.178669
0.353539, -0.069752, 0.225449
0.313930, -0.053388, 0.264131
0.348258, -0.076320, 0.192008
0.338625, -0.067173, 0.227193
0.363348, -0.086354, 0.195646
0.328673, -0.061481, 0.189096
0.326186, -0.062100, 0.207099
0.335830, -0.078274, 0.175437
0.254409, 0.008497, 0.354471
0.236378, 0.012084, 0.310573
0.291820, 0.014389, 0.304599
0.319108, -0.054249, 0.150580
0.337786, -0.129761, -0.162888
0.250631, 0.011067, 0.260840
0.270201, 0.013598, 0.253020
0.317499, 0.017148, 0.304764
0.325151, -0.050998, 0.107152
0.224415, 0.011196, 0.311710
0.235241, 0.015227, 0.363640
0.318904, -0.056715, 0.297126
0.351202, -0.077093, 0.218736
0.356263, -0.044030, 0.342748
0.276293, -0.201630, -0.477036
0.272026, -0.194474, -0.409360
0.319293, -0.010128, 0.157292
0.267505, -0.045489, -0.332199
0.314516, -0.031618, -0.283231
0.319790, 0.012635, 0.306180
0.294663, -0.058975, 0.346153
0.316232, -0.055218, 0.361432
0.326531, -0.060099, 0.290795
0.236483, 0.011670, 0.310895
0.350307, -0.074420, 0.218664
0.333764, -0.063688, 0.189982
0.326247, -0.061028, 0.217687
0.356110, -0.093310, 0.179262
0.338093, -0.081277, 0.174025
0.320510, -0.054949, 0.148538
0.333549, -0.065262, 0.113736
0.320754, -0.074314, -0.017048
0.319428, 0.012973, 0.195132
0.335120, -0.070021, 0.102919
0.327581, -0.058215, 0.365328
0.376013, -0.092317, 0.295000
0.360586, 0.027513, 0.385487
0.387059, 0.037609, 0.401245
0.351927, 0.023702, 0.379596
0.307136, -0.029807, 0.329964
0.316588, -0.047591, 0.144390
0.317061, -0.008546, 0.183105
0.263836, -0.202022, -0.359690
0.322600, -0.086739, -0.027825
0.272068, -0.170122, -0.290298
0.309142, 0.020002, 0.372642
0.321838, -0.059755, 0.221720
0.291112, 0.009761, 0.213207
0.301654, 0.015776, 0.196910
0.312828, -0.068927, -0.435311
0.326936, 0.016733, 0.227952
0.360731, -0.043453, -0.354668
0.358017, -0.070091, -0.365774
0.306169, -0.051158, -0.359719
0.328328, -0.089747, -0.050695
0.331510, -0.062140, -0.345036
0.346913, 0.017211, 0.287839
0.313639, 0.006346, 0.203634
0.359645, -0.083925, 0.220819
0.349779, -0.072184, 0.176599
0.367212, -0.086087, 0.206497
0.349969, -0.069428, 0.317728
0.341373, -0.068358, 0.207536
0.348142, -0.076757, 0.252587
0.334060, -0.063942, 0.240519
0.348418, -0.073180, 0.224540
0.326480, -0.060344, 0.213097
0.307253, -0.051305, 0.302979
0.335184, -0.064785, 0.231778
0.332675, -0.064717, 0.115375
0.377910, -0.123652, 0.032914
0.316701, 0.011944, 0.188614
0.256132, 0.013868, 0.367850
0.317726, 0.006080, 0.254160
0.298973, 0.004686, -0.115369
0.279721, 0.022571, -0.396609
0.321552, -0.053682, 0.318793
0.315805, -0.053825, 0.255683
0.353336, -0.077111, 0.289867
0.323570, -0.057125, 0.249668
0.252101, 0.014673, 0.369342
0.325336, -0.061371, 0.214534
0.327840, 0.016208, 0.094424
0.341100, -0.067957, 0.106021
0.357740, -0.090649, 0.070388
0.392641, -0.125578, 0.021955
0.341472, -0.079921, 0.205874
0.329898, -0.063956, 0.230667
0.310566, -0.055083, 0.245288
0.319311, -0.023402, 0.186259
0.327259, 0.014015, 0.267188
0.306853, -0.024461, 0.256103
0.329034, -0.027701, -0.246359
0.329370, -0.024010, 0.055842
0.319633, 0.012217, 0.253683
0.375743, -0.095409, 0.068155
0.296257, 0.013455, 0.251462
0.268320, 0.013984, 0.252262
0.286384, -0.045865, 0.238792
0.333313, -0.065535, 0.204380
0.333397, -0.066226, 0.193234
0.335855, -0.064432, 0.184583
0.285017, -0.051009, 0.260278
0.356178, -0.079581, 0.065700
0.331858, -0.094931, 0.018995
0.326161, -0.086318, -0.046551
0.320940, -0.088598, 0.052123
0.329966, -0.062020, 0.138543
0.298986, 0.006957, 0.257995
0.330666, 0.007169, 0.059590
0.326512, -0.062519, 0.245497
0.361560, -0.088465, 0.213041
0.305501, -0.053096, 0.231324
0.346593, -0.072752, 0.211728
0.336342, -0.063660, 0.192686
0.320051, 0.006857, 0.367719
0.378481, -0.098661, 0.138083
0.370712, -0.093003, 0.161505
0.251458, 0.013679, 0.367315
0.362933, -0.091558, 0.149096
0.325208, -0.020333, 0.104521
0.303647, -0.052544, 0.250413
0.287582, 0.015863, 0.366136
0.387744, -0.102428, 0.042885
0.374864, -0.102640, 0.090442
0.365258, -0.097786, 0.092526
0.312786, 0.005163, 0.197557
0.374084, -0.096714, 0.139012
0.334148, -0.062094, 0.245003
0.314991, -0.104052, -0.004868
0.345018, -0.176992, -0.203087
0.318888, 0.021142, -0.000744
0.336943, -0.065073, 0.116082
0.258904, 0.012495, 0.256186
0.362971, -0.096844, 0.315688
0.341072, -0.066176, 0.232447
0.256100, 0.012126, 0.303749
0.244358, 0.015948, 0.307306
0.326467, -0.060880, 0.244110
0.341741, -0.076516, 0.235204
0.358526, -0.083113, 0.229055
0.327490, -0.060985, 0.241277
0.254281, 0.023574, 0.377432
0.240652, 0.016119, 0.366461
0.349974, -0.074898, 0.285718
0.324337, 0.013509, 0.307197
0.214509, 0.011118, 0.312841
0.262810, 0.003251, 0.372201
0.257705, 0.010868, 0.368723
0.313106, 0.010675, 0.223516
0.317816, -0.055230, 0.152082
0.347558, -0.069191, 0.312577
0.307288, -0.029328, 0.332097
0.333428, -0.062573, 0.149078
0.318423, 0.011778, 0.259901
0.308295, -0.024749, 0.255638
0.357986, -0.090041, 0.046963
0.317784, -0.020969, 0.105068
0.321258, 0.012475, 0.244182
0.333084, -0.065201, 0.191053
0.327725, -0.052093, 0.050600
0.317993, -0.026786, 0.256250
0.362242, -0.083317, 0.234991
0.328325, 0.011975, 0.186250
0.205078, 0.003318, -0.105611
0.133887, -0.211591, -0.600770
0.215977, -0.089214, -0.250759
0.215774, -0.061852, -0.253116
0.194405, -0.196142, -0.286974
-0.616077, 0.600678, -1.141001
0.253885, -0.233713, -1.272166
0.265814, -0.223958, -0.474819
0.277122, -0.187118, -0.435923
0.203341, -0.189106, -0.304748
0.317387, -0.024768, 0.161671
0.197247, -0.090312, -0.519953
0.332147, -0.061455, 0.078814
0.153930, -0.193157, -0.490176
0.160347, -0.235925, -0.573441
0.322930, 0.015344, 0.101619
0.328350, -0.053478, 0.060657
0.268013, -0.058494, -0.332885
0.311869, 0.014989, 0.249129
0.369192, -0.001915, -0.367687
0.319625, -0.051352, 0.107093
0.322177, 0.009205, -0.025626
0.328216, -0.023440, 0.062495
0.220518, -0.061008, -0.207207
0.289777, -0.040038, -0.378754
0.321112, -0.022819, 0.143731
0.263972, -0.041354, -0.244384
0.244064, -0.041224, -0.198146
0.168568, -0.194933, -0.450306
0.322427, 0.024651, -0.263680
0.341995, -0.065813, 0.036121
0.255186, 0.005315, -0.235268
0.329074, -0.064411, 0.223899
0.380758, -0.093391, 0.032261
0.317858, 0.016610, 0.016722
0.314259, -0.024772, 0.319052
0.328476, -0.059512, 0.315334
0.313621, -0.056095, 0.324150
0.323666, 0.007404, 0.385180
0.355866, -0.079027, 0.081356
0.338315, -0.069851, 0.214455
0.324643, -0.057275, 0.129025
0.498077, 0.091245, 0.096295
0.358274, -0.081267, 0.103585
0.271123, 0.014126, 0.306526
0.347955, -0.068269, 0.256073
0.341065, -0.031065, 0.346015
0.293341, 0.013660, 0.305602
0.352822, -0.078683, 0.254741
0.312159, 0.004411, 0.255324
0.313918, 0.015381, 0.248506
0.320633, -0.061525, 0.377875
0.318708, -0.049420, 0.119300
0.323019, -0.046074, 0.139698
0.318404, 0.012310, 0.190174
0.331455, 0.015390, 0.062104
0.287492, 0.012510, 0.252940
0.339699, -0.032410, 0.259358
0.331618, -0.069386, 0.173526
0.322853, 0.011035, 0.367333
0.337462, 0.010156, 0.376289
0.340618, -0.070921, 0.221368
0.349292, -0.072621, 0.290268
0.332078, -0.068248, 0.220610
0.328129, -0.059452, 0.268156
0.325753, -0.059336, 0.245925
0.255699, 0.004492, -0.378989
0.326656, -0.071520, -0.341610
0.348768, -0.069290, -0.445043
0.323117, -0.033745, -0.360954
0.314241, -0.019927, -0.349194
0.316612, -0.049271, -0.384018
0.349214, -0.074074, -0.348965
0.320185, -0.022400, 0.139416
0.319021, -0.053492, 0.146861
0.330640, 0.018445, 0.236365
0.325386, -0.060238, 0.151042
0.275727, -0.126231, -0.549641
0.320190, -0.023439, 0.175503
0.329461, 0.017386, 0.189102
0.322530, -0.053345, 0.070120
0.321139, -0.053645, 0.123600
0.326246, -0.056178, 0.115191
0.307828, -0.053516, -0.343002
0.244080, -0.043578, -0.133613
0.290512, -0.029197, -0.407305
0.286689, 0.017480, 0.191054
0.344412, -0.031703, 0.234184
0.308420, -0.055182, -0.385103
0.325656, 0.016483, 0.232022
0.264647, 0.021043, -0.033657
0.321713, -0.052574, 0.147442
0.351539, -0.020983, -0.277281
0.333510, -0.086674, -0.074850
0.184432, -0.072848, 0.020769
0.281737, 0.010998, 0.165719
0.189655, 0.038856, -0.037256
0.143636, 0.011910, -0.049522
0.043668, -0.162541, -0.247992
0.206205, -0.037008, 0.084979
0.158110, 0.055931, -0.058151
0.020977, -0.159608, -0.404598
0.320156, -0.036276, 0.129979
0.211745, 0.007651, 0.092655
0.342719, -0.074204, 0.043671
0.209861, 0.026774, 0.063788
0.321947, -0.022441, 0.128512
0.204106, -0.042939, 0.056752
0.298590, -0.018888, 0.236856
0.332546, -0.052333, 0.057260
0.333565, -0.046934, 0.047844
0.333783, -0.042921, 0.038895
0.246065, 0.015567, 0.119370
0.321563, -0.055249, -0.033396
0.204971, -0.000916, -0.143013
0.214561, 0.017061, -0.251449
0.220080, 0.018317, -0.260609
0.292738, 0.021694, -0.032548
0.217516, 0.006289, -0.251912
0.221593, -0.102913, -0.334692
-0.012308, -0.145888, -0.418896
0.198202, 0.002754, -0.145530
-0.041079, 0.024065, -0.399608
0.223306, 0.006318, -0.135673
0.157770, -0.213863, -0.474127
-0.056863, -0.186963, -0.761851
0.247242, 0.310206, -0.748476
0.203433, -0.144142, -0.677484
0.223619, -0.353228, -1.407371
0.249393, -0.251464, -0.491388
0.322184, -0.025449, 0.128261
0.219338, -0.040160, 0.123502
0.236860, -0.044516, -0.136459
0.265180, 0.002819, -0.367732
0.233301, 0.015489, -0.182391
0.442364, -0.218760, -0.355533
0.230113, -0.162883, -0.639765
0.326714, -0.051464, 0.082673
0.319292, 0.009317, 0.179188
0.190999, -0.101729, -0.372477
0.208593, -0.057871, -0.173824
0.823057, -0.686632, -1.806594
0.213155, -0.128431, -0.436102
0.327767, 0.017884, 0.136803
0.323538, -0.085840, -0.038793
0.342985, -0.063415, 0.073120
0.250822, -0.003811, -0.277395
0.263802, -0.037421, -0.307447
0.324349, -0.021636, 0.099786
0.342967, -0.093731, -0.012126
0.176530, -0.090438, -0.261622
0.332741, -0.052004, 0.102856
0.227318, -0.005027, -0.107596
0.196581, -0.181623, -0.272534
0.337739, -0.064694, 0.066477
0.225450, 0.013783, -0.110219
0.003634, -0.225412, -0.453265
-0.032016, 0.015926, -0.429369
0.226576, 0.022961, -0.103119
0.232037, 0.021940, -0.161308
0.174417, 0.011773, -0.100762
0.199245, 0.003419, 0.070635
0.205365, -0.004938, -0.096267
0.191299, 0.001345, -0.092373
0.327058, -0.058887, 0.048621
-0.066415, -0.234119, -0.407309
0.172080, 0.014315, -0.112498
0.172315, 0.003262, -0.161105
0.232250, -0.035246, 0.130833
0.341923, -0.145220, -0.137839
0.206762, 0.043221, 0.044203
0.164176, -0.045041, -0.082426
-0.041267, -0.192480, -0.463437
-0.031590, -0.080563, -0.349466
0.143871, 0.028128, -0.071527
0.333969, -0.057968, 0.023325
0.279199, -0.051438, -0.361743
0.205547, -0.042060, -0.087199
0.199733, 0.020182, -0.122811
0.247997, -0.041492, -0.160829
0.321720, 0.009306, 0.254923
0.260826, -0.020284, -0.288462
0.277162, -0.245567, -0.432556
0.278156, -0.040592, -0.389603
0.212206, -0.061576, -0.161336
0.220571, -0.039122, 0.149705
0.231724, 0.021802, 0.158602
0.275084, 0.016530, 0.148901
0.347554, -0.139983, -0.155495
0.215078, 0.000049, 0.082781
0.209647, 0.014604, 0.039898
0.181294, -0.001506, 0.005865
0.213444, 0.018963, 0.061875
0.270368, -0.200472, -0.424538
0.279363, -0.007166, -0.423356
0.343812, -0.069222, 0.031485
0.210233, -0.044334, 0.057424
0.323197, -0.038596, 0.123746
0.047094, -0.231786, -0.492757
0.321100, -0.036712, 0.127366
0.202305, 0.043040, 0.090128
0.285212, -0.011946, 0.216753
0.315930, -0.033359, 0.157125
0.193496, 0.015827, 0.084075
0.296276, 0.015035, 0.198894
0.287826, -0.016263, 0.250593
0.270504, 0.020104, 0.184822
0.310924, -0.011313, -0.199781
0.314910, 0.019064, -0.170351
0.180494, -0.244901, -2.110462
0.275067, -0.175205, -0.242044
0.317592, -0.013481, -0.435311
0.210745, -0.113654, -0.689938
0.164552, 0.031171, -0.335797
0.359243, -0.072128, -0.388840
0.334294, -0.025398, 0.078515
0.308508, -0.054909, -0.379582
0.263783, -0.044436, -0.258842
0.259394, -0.202528, -0.363600
0.194051, 0.012691, -0.128796
0.219194, -0.035700, 0.093188
0.224615, -0.033360, -0.037961
0.330068, 0.013003, 0.021102
0.214087, -0.004376, -0.110326
0.203598, 0.012713, 0.054166
0.181069, 0.008007, -0.100676
0.210516, -0.091533, -0.219454
0.327072, -0.049037, 0.051046
0.270389, -0.202958, -0.409237
0.295833, -0.045269, -0.384782
0.323068, -0.024276, 0.171974
0.360006, -0.076174, -0.380156
0.311263, -0.025398, 0.256577
0.210790, -0.045297, -0.122710
0.168739, 0.008503, -0.165031
0.181697, 0.014131, -0.134484
0.173345, -0.005329, -0.137250
0.228093, 0.009777, -0.112869
0.475058, -0.403648, -0.829552
0.320598, -0.041912, 0.061825
0.035964, -0.132553, -0.500562
-0.063990, -0.031808, -0.481325
0.334805, -0.025892, 0.080294
-0.010710, -0.073713, -0.374790
0.180231, 0.064397, -0.056372
0.330921, -0.024428, 0.080879
0.213187, -0.031188, 0.108123
0.319482, 0.009513, 0.197571
0.205578, 0.020044, 0.098081
0.343273, -0.044783, 0.117936
0.173002, 0.023828, 0.035142
0.239840, -0.227790, -0.534199
0.002470, -0.215289, -0.585544
0.323401, -0.022706, 0.127409
0.214601, -0.112691, -0.414372
0.189446, -0.173606, -0.666815
0.207486, -0.246120, -0.736480
0.259573, -0.267071, -0.489851
0.209014, 0.007047, -0.229434
0.328623, -0.024013, 0.099121
0.326678, -0.039902, 0.117612
0.279213, 0.029190, -0.067758
0.324313, -0.053676, 0.099494
0.334202, -0.054970, 0.039787
0.342162, -0.093003, -0.005341
0.055426, -0.415093, -2.018195
0.263790, -0.043628, -0.256627
0.026076, -0.416631, -1.781313
0.324315, -0.012447, 0.182010
0.278183, 0.005787, -0.368108
0.278765, -0.053893, -0.399511
0.314096, -0.024825, 0.228443
0.327859, 0.018216, 0.059738
0.208343, 0.001968, 0.087193
0.203501, 0.005769, 0.079990
0.204127, 0.014429, 0.100063
0.212812, -0.043590, 0.095036
0.332807, 0.020348, 0.052673
0.324501, -0.033154, 0.131038
0.205032, -0.005167, -0.054974
0.310032, -0.067026, 0.039606
0.180924, 0.020092, 0.056589
0.001996, 0.181459, -0.234763
0.274612, 0.033016, 0.104966
0.233810, 0.014190, -0.183864
0.229330, -0.002247, -0.297375
0.326654, 0.026886, -0.041252
0.227392, 0.012858, -0.075653
0.218707, 0.015464, -0.104226
0.309514, 0.020128, -0.026512
0.236451, -0.066427, -0.267630
-0.057019, -0.172140, -0.616235
0.181775, 0.022559, -0.079943
0.279402, 0.021817, -0.034496
0.022153, -0.128334, -0.417880
0.221623, 0.006871, -0.217371
0.285527, 0.022378, -0.034700
-0.069821, -0.203556, -0.471317
0.322238, 0.015295, 0.168237
0.328347, -0.011711, 0.157095
0.273861, -0.219745, -1.262753
0.331294, 0.012628, 0.009348
0.305077, -0.021214, 0.252182
0.328720, -0.024409, 0.055670
0.319449, 0.008303, 0.254561
0.308327, -0.022220, 0.257242
0.307430, -0.021631, 0.257439
0.324468, 0.015465, 0.217930
0.321602, 0.013558, 0.212265
0.343041, -0.082727, -0.343696
0.314410, -0.048461, 0.195286
0.318065, 0.009636, 0.197491
0.315165, -0.022004, 0.182020
0.258233, 0.019356, -0.257835
0.263177, -0.027818, -0.315284
0.223623, 0.006368, -0.045538
0.271171, -0.204728, -0.400644
0.233186, -0.168004, -0.631508
0.209775, -0.037278, -0.080381
0.332918, -0.025442, 0.053605
0.265336, 0.005327, -0.465415
0.287271, 0.014453, 0.200080
0.278536, 0.011935, -0.397690
0.320763, 0.018610, -0.345752
0.263922, -0.164148, -0.312801
0.235420, -0.060366, -0.135246
0.265450, -0.025579, -0.356589
0.308123, -0.021706, 0.242241
0.279337, -0.100832, -0.553186
0.252295, -0.235108, -0.546812
0.276485, -0.007924, -0.358644
0.326281, -0.014333, -0.407850
0.316345, -0.027193, 0.254742
0.187382, 0.008874, -0.143862
0.326241, -0.056580, 0.085256
0.215571, -0.050423, -0.136246
0.318263, 0.006160, 0.189122
0.205019, -0.493064, -1.581882
0.277440, 0.008099, -0.366726
0.326533, -0.053028, 0.107211
0.322097, -0.016652, -0.361842
0.323203, 0.013490, 0.131496
0.257360, -0.224645, -0.407804
0.325289, 0.010586, 0.253628
0.298325, 0.015517, 0.197605
0.261045, -0.220191, -0.474081
0.214819, -0.038041, -0.159415
0.257280, -0.042955, -0.172383
0.280057, 0.018489, -0.097251
0.215233, 0.018504, 0.068242
0.351431, -0.066515, -0.004965
0.161275, -0.185198, -0.438016
0.211589, 0.012266, 0.049017
0.211284, 0.009075, 0.066726
0.319202, -0.029631, 0.179836
0.351573, -0.030161, 0.026507
0.213785, 0.025699, -1.159580
0.242614, -0.377067, -0.892875
0.355062, -0.003579, -0.286843
0.322837, -0.021309, 0.122864
0.321576, 0.014319, -0.291271
0.323873, -0.047105, 0.074621
0.356513, -0.062145, -0.022137
0.026419, -0.138197, -0.317044
0.335178, -0.054940, 0.047129
0.333352, -0.045932, 0.048590
0.320364, -0.078090, -0.003266
0.241806, -0.115667, -0.069328
0.169875, -0.079630, -0.254208
0.256706, -0.011391, -0.256821
0.253409, -0.049687, -0.230962
0.317242, 0.012687, 0.221900
0.276459, -0.040154, -0.429434
0.326005, 0.014513, 0.126223
0.269997, -0.203930, -0.471826
0.331517, -0.050798, 0.031987
0.178833, 0.004412, -0.101461
0.184595, 0.028548, -0.067320
0.337289, -0.059492, 0.024860
0.187674, 0.005007, -0.110868
0.378037, -0.206710, -0.312920
0.089512, -0.107322, -0.073025
0.257461, -0.200983, -0.482704
0.210166, -0.029852, 0.100352
0.150609, 0.080773, -0.036535
0.212905, 0.012114, 0.112295
0.170960, 0.025080, 0.017999
0.011114, -0.188745, -0.491708
0.178143, 0.046382, -0.068153
0.206174, -0.051074, 0.030708
0.266994, 0.017180, 0.095266
0.207369, 0.013562, 0.103579
0.216229, 0.019341, 0.061607
0.178145, 0.025917, -0.052066
0.183446, -0.013955, -0.091107
0.177626, -0.084177, -0.240149
0.212053, -0.037123, -0.085534
0.204883, 0.008635, 0.077748
-0.025765, -0.207315, -0.502457
0.288681, -0.040533, -0.407763
0.240316, 0.015721, -0.217447
0.202464, 0.026856, 0.079634
0.324490, 0.017823, -0.025872
0.354047, -0.058328, -0.338397
0.273037, 0.028111, -0.002708
0.196006, 0.036751, -0.018187
0.489786, -0.073400, -0.325698
0.363488, -0.033177, -0.004704
0.046181, -0.115103, -0.498339
0.135368, -0.004322, -0.141631
0.110075, -0.087777, -0.303345
0.003845, -0.228106, -0.476917
0.214649, 0.018210, 0.053351
0.242796, -0.217261, -0.543788
0.226208, 0.004787, -0.159686
0.227835, 0.011801, -0.154764
0.215847, -0.422543, -1.466162
0.271015, -0.190716, -0.846433
0.187123, 0.019243, 0.072827
0.127841, -0.107743, -0.080784
0.192629, 0.011223, -0.115690
0.193513, -0.049831, -0.140439
0.186903, 0.006361, -0.065501
0.176842, -0.044310, -0.062645
0.172191, -0.004864, -0.094404
0.172881, -0.037938, -0.062834
-0.045889, -0.142677, -0.462970
0.176489, 0.022472, -0.101684
0.158764, -0.004742, -0.165191
0.196629, 0.012172, -0.107139
0.190960, -0.178772, -0.279553
0.225027, -0.076628, -0.174056
0.262195, -0.048529, -0.607075
0.242942, -0.198753, -0.433834
0.356321, -0.075806, -0.351750
0.188335, -0.254908, -0.456893
0.154820, -0.302782, -1.250245
0.230994, 0.010098, -0.099814
0.225382, 0.020571, -0.095851
0.220068, -0.001950, -0.240189
0.208132, -0.040820, -0.194998
0.239470, -0.041624, -0.120629
0.317527, 0.007327, 0.194146
0.212012, -0.084277, -0.303040
0.337262, -0.062536, 0.088613
0.372194, -0.137247, -0.116689
0.270990, -0.215242, -0.380434
0.329777, 0.018375, 0.188714
0.253714, -0.036703, -0.254360
0.267961, -0.299806, -0.717900
0.185752, 0.012316, -0.104193
0.210904, -0.032952, 0.100989
0.196630, -0.005741, -0.106124
0.339416, -0.066038, 0.015181
0.213954, -0.192160, -0.230259
0.225359, 0.021565, -0.089324
0.175383, -0.040893, -0.058795
0.251568, -0.037908, -0.552949
0.155393, -0.002442, -0.241905
0.260925, 0.019438, -0.131648
0.241420, 0.013768, -0.294821
0.203586, -0.048241, 0.111330
0.162767, -0.040388, -0.088647
0.226719, 0.010009, -0.115171
0.154581, -0.177766, -0.424602
0.246193, -0.040699, -0.169182
0.279200, 0.018714, -0.356014
0.184165, -0.071296, -0.239640
0.331066, -0.076665, -0.394699
0.321924, 0.009102, 0.092878
0.321829, 0.009430, 0.129861
0.325200, -0.054405, 0.109043
0.259580, -0.032926, -0.061222
0.255068, -0.077363, -0.262582
0.318071, 0.018052, 0.013912
0.208195, -0.061322, -0.184136
0.229389, -0.034594, -0.136078
0.216792, -0.000641, 0.069647
0.217227, -0.003202, 0.107151
0.186027, -0.181205, -0.257706
0.237704, -0.046152, -0.130042
0.227468, -0.072687, -0.277031
0.315047, -0.012076, -0.406785
0.371309, 0.015466, -0.250950
0.133054, 0.011787, -0.196813
0.194044, 0.022996, -0.093256
0.226951, -0.047220, -0.130650
0.167377, 0.007345, -0.131372
0.213096, -0.043982, -0.108715
0.244541, 0.009689, -0.207545
0.180031, -0.159828, -0.300828
0.348254, -0.081750, -0.323317
0.230371, -0.098243, -0.353892
0.279899, -0.007734, -0.429999
0.318439, 0.014460, 0.155549
0.250482, 0.019444, -0.207932
0.311678, 0.010148, 0.216522
0.319444, 0.007187, 0.129004
0.204251, 0.012972, 0.101413
0.205329, 0.014529, 0.100795
0.222614, 0.005251, 0.116895
0.319022, -0.024646, 0.139647
0.176039, -0.179543, -0.386083
0.112542, -0.300603, -1.050049
0.273719, -0.003156, -0.374675
0.187253, 0.000445, 0.035494
0.282329, 0.019334, -0.101794
0.322602, 0.014844, 0.199451
0.056289, -0.162343, -0.459110
-0.044687, -0.274289, -0.564717
0.048572, -0.177264, -0.492065
-0.029250, -0.213015, -0.501912
0.216478, -0.065543, -0.226872
0.237249, -0.002827, -0.054971
0.231017, 0.009641, -0.105367
0.216199, -0.070892, -0.236460
0.189733, 0.016049, -0.188477
0.220197, 0.016932, -0.097817
0.322583, -0.017376, -0.368750
0.370355, -0.128916, -0.296618
0.319105, 0.025593, -0.163478
0.172086, -0.090843, -0.257028
0.298897, 0.025539, -0.049579
0.263935, 0.023335, -0.040511
0.335572, 0.018159, -0.000227
0.165921, 0.021654, -0.087778
0.203513, 0.010223, -0.086981
0.328314, 0.015093, 0.053931
0.199274, -0.005398, -0.084738
0.090972, 0.125833, -0.175883
0.206516, -0.039656, -0.077955
0.328374, -0.059357, 0.052888
0.277050, 0.018181, 0.092424
0.007364, -0.091232, -0.376918
-0.083798, -0.073059, -0.523076
0.193191, -0.107810, -0.251095
0.326643, -0.048493, 0.068459
0.276720, -0.158635, -0.509551
0.669662, -0.454729, -1.468120
0.318709, -0.015212, -0.403335
0.117695, -0.112109, -0.306413
-0.044202, -0.218403, -0.435821
0.195715, -0.049225, -0.081914
0.229128, 0.000615, -0.161217
0.256109, -0.049699, -0.222874
0.270808, -0.174473, -0.387545
0.173682, 0.006350, -0.130749
0.264677, -0.026267, -0.238201
0.271959, 0.023515, -0.044752
0.269385, 0.023753, -0.037236
0.193059, 0.020941, -0.028678
0.379540, -0.088668, -0.520300
0.328173, -0.036680, 0.085219
0.279050, 0.021798, 0.083843
0.331844, -0.051187, 0.030985
0.255123, 0.008838, 0.140247
0.325818, -0.025376, 0.064410
0.326778, -0.022090, 0.061089
0.230918, 0.014445, -0.070263
0.215156, -0.070221, -0.150497
0.226110, -0.053748, -0.154730
0.220162, -0.207774, -0.313933
0.236340, -0.132578, -0.579425
0.238350, -0.076810, -0.415450
0.233813, 0.020728, -0.300966
0.230345, -0.045723, -0.138857
0.203516, -0.187273, -0.237576
0.251596, 0.020316, -0.299041
0.251823, -0.011177, -0.645970
0.218957, -0.095056, -0.278526
0.204599, -0.083208, -0.180993
0.240319, 0.024127, -0.358402
0.298489, 0.020497, -0.032886
0.168175, -0.176112, -0.490121
0.218863, 0.019465, 0.111977
0.212364, 0.021094, 0.064982
0.213218, -0.030550, 0.101362
0.212106, 0.038075, 0.073986
0.228622, 0.018023, -0.264264
-0.097466, -0.009156, -0.526472
0.240781, -0.028248, 0.056970
0.278350, -0.020161, 0.053121
0.114683, -0.317645, -1.075280
0.097364, -0.065251, -0.196285
0.282608, 0.024102, -0.130126
-0.169578, -0.300928, -1.059846
0.168423, 0.071872, -0.053467
0.170666, 0.069658, -0.044109
0.220254, 0.007695, -0.239641
-0.172383, 0.048264, -0.637299
0.110973, -0.101642, -0.245026
0.229405, -0.000039, -0.290985
0.214131, -0.265520, -0.905365
-0.104310, -0.110086, -0.658757
0.043207, -0.238795, -0.503690
0.007980, -0.177710, -0.324653
0.209542, -0.095785, -0.259826
0.324244, -0.052451, 0.105668
0.175022, -0.246397, -0.716328
0.211277, -0.005338, -0.185268
0.261782, -0.078225, -0.476507
0.196734, -0.044373, -0.003056
0.173037, -0.349809, -1.204798
0.222313, 0.004959, -0.224134
-0.046433, -0.245710, -0.584246
0.027400, -0.077249, -0.300931
0.210161, -0.039269, -0.170706
0.211517, -0.036596, -0.078288
0.134187, -0.194297, -0.587371
0.121425, 0.040269, -0.078707
0.176304, 0.022356, -0.101993
0.225102, 0.004337, -0.074665
0.324141, -0.042251, 0.076861
0.231912, 0.024830, 0.103092
0.325026, -0.038894, 0.086647
0.325782, -0.048253, 0.044068
0.320998, 0.015659, 0.100399
0.323615, -0.025786, 0.125205
0.331940, -0.055634, 0.030850
0.320993, 0.009029, 0.129399
0.254616, 0.009323, 0.137556
0.357872, -0.059296, -0.025115
0.181297, 0.020214, -0.062573
0.326997, -0.038553, 0.086877
0.374312, -0.038538, -0.001172
0.220120, 0.017334, 0.082140
0.087379, -0.136700, -0.202529
0.327450, -0.040590, 0.081560
0.217683, 0.020300, 0.076652
0.326035, -0.041311, 0.082015
0.209372, 0.002614, 0.068193
0.330773, -0.048912, 0.049692
0.330951, -0.055517, 0.048092
0.279160, 0.018377, 0.091270
0.266906, 0.018628, 0.090804
0.327170, -0.051987, 0.083765
0.332357, -0.045769, 0.052125
0.319441, 0.013107, 0.209085
0.227535, -0.035733, -0.140880
0.237051, 0.017927, 0.170933
0.221082, 0.017970, 0.116943
0.204361, 0.023273, 0.065272
0.213607, 0.022287, 0.100830
0.010456, -0.228790, -0.547702
0.211798, 0.012448, 0.065898
0.195610, 0.029805, 0.040927
0.210813, -0.003716, -0.080852
0.152897, -0.047240, -0.106530
0.200914, 0.013713, 0.095876
0.204271, -0.000226, 0.072106
-0.087157, 0.254527, -0.553151
0.190230, 0.002374, -0.081374
-0.041671, 0.033090, -0.498831
0.355518, -0.021497, -0.293054
0.409681, -0.050032, -0.015450
0.192830, -0.121382, -0.305934
0.338131, -0.059747, 0.028035
0.183431, 0.020578, -0.120814
0.361054, -0.034442, 0.065479
0.197489, 0.008232, -0.207756
-0.133580, -0.151104, -0.603221
0.061350, -0.083606, -0.235019
0.181729, -0.059378, -0.125479
0.359309, -0.252724, -0.396783
0.290288, -0.045660, -0.407540
0.331572, -0.050041, 0.036907
0.326519, -0.044451, 0.070226
0.182676, 0.025671, -0.053335
0.321324, -0.021338, 0.097504
0.215770, 0.018806, 0.067648
0.164709, 0.075910, -0.098099
0.185880, 0.027376, -0.064001
0.283578, 0.017897, 0.093261
0.145411, 0.025769, -0.122964
0.192701, 0.055845, -0.030591
0.329566, -0.022229, 0.058484
0.204357, 0.023702, 0.044294
0.212926, -0.001096, 0.074347
0.215311, 0.019040, 0.066263
0.320496, -0.037065, 0.062840
0.275838, -0.032661, -0.409098
0.376912, -0.082830, -0.309674
0.423618, -0.143331, -0.451547
0.370318, -0.083209, -0.242165
0.238239, 0.023778, 0.046702
0.035976, 0.166491, -0.306842
0.044371, 0.158787, -0.274142
0.048585, 0.155682, -0.259365
0.210319, 0.011186, 0.067147
0.210214, 0.009273, 0.064482
0.269534, -0.249990, -0.472477
0.202171, -0.059683, 0.052052
0.242824, -0.154416, -0.190077
0.185841, -0.206618, -0.739850
0.306389, -0.018954, 0.187834
0.198582, 0.011726, 0.067702
0.184885, 0.031604, -0.012573
0.325669, -0.052867, 0.115435
0.202895, 0.042153, 0.103293
0.138334, -0.055429, -0.162622
0.182646, -0.005855, -0.088595
0.193545, -0.137084, -0.332072
0.325489, -0.054378, 0.116844
0.214746, -0.051868, -0.142998
0.319393, 0.025078, -0.127470
0.203228, 0.016212, 0.046918
0.210061, 0.008897, 0.064813
-0.023340, -0.109402, -0.460102
-0.050838, -0.021789, -0.463025
-0.471805, 0.501774, -0.890815
0.278007, -0.038489, -0.450833
-0.020113, -0.169091, -0.418562
0.298398, 0.023984, -0.044444
0.222212, 0.011021, -0.148496
0.206335, -0.092981, -0.276618
-0.066523, -0.179619, -0.507625
0.198676, -0.113601, -0.353111
-0.136336, -0.171319, -0.454756
-0.025628, -0.032567, -0.404779
0.321143, -0.022854, -0.435382
0.013320, -0.129448, -0.556606
0.042654, -0.005442, -0.307674
0.215658, -0.037427, 0.086468
0.222063, -0.174478, -0.231597
-0.065013, -0.281895, -0.475015
0.160229, -0.143630, -0.446896
0.200565, 0.043572, 0.101397
0.237623, -0.076115, -0.300442
0.207346, -0.180464, -0.278586
0.199548, 0.022057, -0.119924
0.877077, -0.718807, -2.461507
0.326716, 0.006270, -0.038922
0.188422, 0.021145, -0.084097
0.258890, 0.023998, -0.040999
0.342422, 0.019628, -0.006380
0.220937, 0.016492, -0.039874
0.196845, -0.004625, -0.212981
0.323266, 0.000149, -0.029540
0.168657, -0.052132, -0.079440
0.208930, 0.011414, 0.109800
0.326703, 0.020720, 0.142667
0.199140, -0.050936, 0.094420
0.211568, -0.033359, 0.092258
0.220821, 0.032939, 0.074813
0.212212, -0.031009, 0.103567
0.210508, -0.031646, 0.103514
-0.019320, 0.016765, -0.457986
0.323814, 0.009870, 0.105537
0.246616, 0.013716, 0.144563
0.202066, 0.045105, 0.060240
0.006539, -0.222100, -0.590506
0.326961, -0.026168, 0.061979
0.023432, -0.167040, -0.272009
0.162139, 0.035502, -0.127820
0.327620, 0.018542, 0.091577
0.419205, -0.051630, -0.052962
0.428484, -0.193319, -0.552231
0.331713, -0.040914, 0.058347
0.219767, -0.116644, -0.481799
0.170666, -0.357641, -1.140548
0.207437, -0.031986, 0.088678
-0.801321, -0.736430, -2.198689
0.223600, 0.020140, 0.088303
0.211775, 0.002170, 0.071236
0.179728, -0.039879, 0.025119
0.123561, -0.086369, -0.267881
0.167798, 0.026831, 0.021398
0.266080, 0.085905, -0.043058
0.266051, 0.037237, 0.015211
0.200778, 0.011459, 0.074439
0.210690, 0.037429, 0.101761
0.210546, -0.031268, 0.103812
0.176536, 0.014476, -0.121086
0.056871, 0.146591, -0.193134
-0.004548, 0.006364, -0.368797
0.156854, -0.309232, -1.367856
0.217171, -0.011776, -0.102435
0.274973, 0.024855, -0.160656
0.219040, 0.046793, -0.485207
0.229736, 0.006115, -0.207841
-0.098131, 0.253136, -0.426986
0.203676, -0.051368, -0.140822
0.965540, -0.281586, -0.634571
0.105118, 0.109880, -0.066494
0.248420, -0.239872, -0.558234
0.331806, -0.079887, 0.031410
0.315157, 0.011623, 0.161824
0.206532, -0.153564, -0.184872
-0.148765, -0.039252, -0.445919
0.065558, -0.130656, -0.346771
0.276695, -0.026155, -0.398895
0.315524, 0.024186, -0.109122
0.217767, 0.007177, -0.103230
0.199505, 0.027761, 0.046941
0.215712, -0.041870, 0.137783
0.124719, -0.068867, -0.105660
0.366846, -0.036274, 0.042018
0.161361, -0.003256, -0.094531
0.158195, 0.012192, -0.091408
0.326590, -0.024268, 0.060860
0.181977, -0.010683, -0.068394
0.222124, -0.000276, -0.072424
0.221774, -0.125182, -0.196218
0.108878, 0.116162, -0.184057
0.223563, 0.033330, 0.032819
-0.018664, -0.160788, -0.388895
0.329849, -0.049057, 0.030004
0.202556, -0.005440, -0.153113
0.194278, -0.199416, -0.307561
0.239842, -0.036817, -0.189752
-0.045362, -0.159470, -0.675303
0.263850, 0.022442, -0.039079
0.329181, -0.059155, 0.049573
0.224626, -0.077676, -0.158670
0.169445, -0.061284, -0.190949
0.165526, 0.012069, -0.307174
0.268142, 0.006375, -0.503212
0.188901, 0.019824, -0.126694
-0.074995, -0.025388, -0.496807
0.225180, -0.005694, -0.121104
0.199887, -0.161612, -0.689890
-0.038294, 0.040240, -0.455661
-0.101668, -0.136506, -0.392725
0.198276, -0.046270, -0.081817
0.237015, 0.023771, -0.093528
0.256459, -0.138709, -0.439370
0.334682, 0.014292, 0.002611
0.325624, -0.041090, -0.010311
0.334176, -0.003744, 0.000108
0.228356, -0.041871, -0.106025
0.268200, -0.337035, -0.933472
-0.118542, -0.001581, -0.376267
0.300199, 0.024460, -0.065407
0.196272, 0.019200, -0.025735
0.208613, 0.021203, -0.030656
0.214973, 0.020642, 0.071865
0.199932, -0.046812, -0.111764
0.256803, -0.208190, -0.398782
0.245406, -0.047002, -0.138689
0.402071, -0.181239, -0.448926
0.188704, 0.033958, -0.172163
0.186834, 0.021433, -0.161625
0.300466, -0.031677, 0.153515
0.181049, 0.035482, 0.016305
0.318346, 0.015375, 0.152620
0.232949, -0.003408, -0.083726
0.172250, -0.079144, -0.299640
0.029418, 0.020956, -0.314981
0.230857, -0.061999, -0.213820
0.080439, -0.118249, -0.497496
0.226882, 0.019043, -0.091692
0.184055, -0.004448, -0.101173
0.237724, 0.006891, -0.123414
0.243225, -0.045101, -0.147156
0.155673, -0.174246, -0.420255
0.219255, -0.159499, -0.196087
-0.036898, -0.173153, -0.225075
0.218152, -0.003050, 0.109207
0.320758, -0.082623, -0.016540
0.317463, 0.012562, 0.178639
-0.060291, -0.227646, -0.423872
0.216099, 0.018365, 0.058882
0.193910, -0.108206, -0.253718
0.165886, -0.085926, -0.274873
0.211686, -0.043674, 0.092001
0.229493, 0.016432, 0.103404
0.206683, 0.010253, 0.062159
0.232670, 0.010954, 0.116142
0.205949, -0.024019, 0.072438
0.221977, 0.002503, -0.141462
-0.446746, 0.484563, -0.822223
-0.010918, -0.215277, -0.475288
0.075609, -0.114484, -0.498598
0.163077, -0.201664, -0.445842
0.160653, -0.104049, -0.084158
-0.072603, -0.250010, -0.449051
0.186735, 0.020928, -0.127530
0.218400, 0.001340, 0.071324
0.198787, 0.003811, 0.071188
0.245257, 0.015084, 0.134571
0.212127, 0.003358, 0.071314
0.315142, 0.006034, 0.139348
0.046499, -0.103328, -0.322719
0.208366, 0.002683, 0.066356
0.210303, 0.022432, 0.065995
0.184220, 0.023526, -0.037529
0.211311, -0.033389, 0.091605
0.253690, -0.185597, -0.271891
0.171353, 0.015480, -0.155505
0.249823, -0.237178, -0.438676
0.290003, 0.027181, -0.441571
0.316764, -0.052789, -0.008078
0.344438, -0.030177, -0.348821
0.342436, -0.068759, -0.387537
0.240009, -0.036133, -0.193943
0.177639, -0.197232, -0.318530
0.226785, 0.011207, -0.159726
-0.037529, -0.219991, -0.403968
0.094449, -0.160075, -0.275418
0.324886, -0.038329, 0.087239
0.190453, 0.029422, 0.019221
0.155083, -0.002070, -0.150507
0.052610, -0.117503, -0.362153
0.311699, -0.032845, 0.069297
0.638160, -0.121983, -0.384989
0.226781, 0.017114, -0.224828
0.216290, -0.005286, -0.189099
0.193132, -0.216396, -0.754041
0.229087, -0.006467, -0.237047
0.256871, -0.199781, -0.430287
0.238776, -0.056992, -0.261936
0.032814, -0.140657, -0.403676
0.216330, 0.040628, -0.017928
0.144617, -0.342258, -1.145558
0.257598, -0.022840, -0.325066
-0.049977, -0.010830, -0.451137
-0.030735, -0.109909, -0.468945
0.004078, -0.056309, -0.367358
0.251034, -0.080113, -0.246144
0.334447, -0.070040, -0.415422
0.382861, -0.101147, -0.349438
0.381981, -0.147339, -0.321051
0.339441, 0.022310, 0.002328
0.241814, 0.020658, 0.066544
0.323208, 0.017237, 0.093701
0.032977, 0.164535, -0.246537
0.327281, -0.038523, 0.136144
0.264587, 0.069229, -0.089343
-0.139392, -0.188202, -0.830693
-0.152019, -0.233968, -0.871980
0.238408, 0.022161, -0.087078
0.346423, -0.080412, -0.012930
0.329404, 0.017716, 0.017832
0.274784, -0.283746, -0.929629
-0.340529, 0.414822, -0.735350
-0.045629, -0.179841, -0.495949
-0.088295, -0.093245, -0.437324
0.165387, 0.034102, -0.085644
0.234059, 0.000965, -0.109635
-0.168948, -1.217861, -4.579018
-0.066810, 0.030548, -0.472027
0.187198, -0.178691, -0.379959
-0.075055, -0.074815, -0.430006
-0.012134, -0.164884, -0.449767
0.018754, -0.155310, -0.498945
-0.062001, -0.060591, -0.467953
-0.025423, -0.152018, -0.474741
-0.076952, -0.187200, -0.512775
-0.046689, 0.027808, -0.411859
-0.070017, -0.090674, -0.407127
-0.000865, -0.191299, -0.366090
0.182931, -0.312790, -1.182179
0.256147, -0.077464, -0.232535
0.327123, -0.055212, -0.317746
0.314094, -0.017340, -0.403645
0.269235, -0.048066, -0.300900
0.357103, 0.010185, -0.221956
0.333010, 0.014514, 0.009723
0.218778, 0.000510, 0.089036
0.022783, -0.004288, -0.334110
0.208103, -0.044902, 0.084633
0.343439, -0.073600, 0.061291
0.211473, 0.012353, 0.065782
0.174804, 0.020563, -0.105902
0.220279, -0.005331, 0.100967
0.210963, 0.002186, 0.090054
0.327434, -0.055097, 0.104459
0.326474, -0.005617, 0.148680
0.214751, 0.011465, 0.058813
0.031021, -0.170447, -0.448157
0.288763, 0.022983, -0.040859
0.236909, -0.060504, -0.223161
0.222351, -0.089740, -0.266467
0.223211, -0.084345, -0.304964
0.315810, 0.024569, -0.116062
0.337221, -0.055602, 0.010120
0.218387, -0.001453, 0.073551
0.179659, 0.028833, -0.055593
0.221862, 0.008475, 0.071187
0.120369, -0.101777, -0.143239
0.325867, -0.046407, 0.047484
0.212928, -0.043370, 0.094928
0.182659, 0.016831, -0.182774
0.212218, -0.038427, 0.071472
0.150294, 0.040713, -0.018880
0.325157, -0.084434, -0.048170
0.188850, 0.016382, -0.156830
0.204116, 0.019553, -0.106592
0.214443, -0.083561, -0.203046
0.190306, 0.021644, -0.106925
0.123796, -0.084336, -0.321572
0.180577, 0.024727, -0.142871
0.151483, -0.227154, -0.372169
0.204648, -0.187109, -0.235611
0.154873, 0.011816, -0.100101
0.063446, -0.110154, -0.329600
0.188841, -0.029115, 0.038258
0.209896, -0.032808, 0.103575
0.216201, 0.017998, 0.066291
0.095383, -0.127507, -0.120737
0.060877, -0.067879, -0.328845
0.216962, -0.029526, 0.106907
0.196894, 0.014512, 0.049392
0.212112, 0.020075, 0.046265
0.214085, 0.023363, 0.072714
0.325413, -0.056103, 0.079118
0.220531, 0.029177, 0.147026
0.208143, -0.002298, 0.090422
0.276368, -0.158997, -0.346487
0.034819, -0.117654, -0.429698
0.178059, -0.044636, -0.058654
0.207291, 0.040255, 0.088757
0.272318, 0.023054, -0.037175
0.339884, 0.009056, -0.162297
0.266878, -0.214025, -0.640714
0.163031, -0.215350, -0.502381
0.298635, 0.022827, -0.099543
-0.056574, 0.018061, -0.475328
0.052317, 0.032202, -0.541575
0.233078, -0.095105, -0.500448
0.177523, -0.048172, -0.065057
0.232495, 0.019102, -0.281005
0.327120, 0.017586, 0.146643
0.206537, 0.009640, 0.085521
0.320890, -0.078778, -0.017121
0.318287, 0.019169, -0.001109
0.326345, 0.009785, 0.057093
0.310445, 0.021162, -0.032206
0.000256, -0.188755, -0.455192
0.215270, -0.091220, -0.261690
-0.086819, -0.230888, -0.527838
0.292580, 0.022964, -0.039561
-0.050960, 0.035544, -0.421257
-0.111817, -0.013309, -0.565715
-0.050797, -0.143456, -0.443645
0.001527, -0.170783, -0.438163
0.237507, 0.022442, -0.034399
0.205872, 0.002689, 0.085787
0.334103, -0.048786, 0.044191
0.331197, -0.052472, 0.055818
0.211217, 0.009615, 0.099615
0.216330, 0.001734, 0.068745
0.172664, 0.027867, -0.055892
0.186788, 0.021522, -0.022729
0.240635, 0.016672, 0.154613
0.582817, -0.105973, -0.268615
0.156339, 0.012815, -0.093364
0.213533, -0.031566, 0.106939
0.209491, 0.021214, 0.033762
0.058502, -0.120683, -0.320584
0.315838, -0.022189, 0.184578
0.206179, -0.046943, 0.121343
0.220270, 0.031281, 0.110076
0.176196, 0.023157, 0.029286
0.155952, -0.196912, -0.502766
0.196562, 0.018173, 0.034639
0.202182, 0.013091, 0.061048
0.262963, -0.177222, -0.659183
0.332900, 0.017135, 0.003540
0.308849, 0.027650, -0.058026
0.210538, 0.025178, -0.179505
0.147235, -0.208414, -0.510473
0.219075, 0.017434, -0.142797
0.204545, -0.081017, -0.271749
0.214876, -0.010314, 0.085562
0.230761, 0.023392, 0.140427
0.322445, 0.014433, 0.146545
0.324495, -0.031233, 0.153726
0.216679, 0.011273, 0.060933
0.202391, -0.000652, 0.062454
0.213762, -0.042318, 0.096679
0.180610, 0.016990, -0.094718
0.028490, 0.001055, -0.469035
0.243894, -0.214898, -0.895074
0.269671, -0.049246, -0.165089
0.210927, 0.039355, 0.063553
0.209683, 0.039892, 0.066253
-0.086739, -0.250357, -0.453515
-0.078835, -0.245996, -0.518912
0.210097, -0.046849, 0.085015
0.322592, -0.050125, 0.123771
-0.207296, -0.261610, -0.996836
-0.002536, -0.185325, -0.585883
0.213644, -0.143502, -0.445292
0.177560, -0.058223, -0.128247
0.223530, 0.015523, -0.384295
0.323717, -0.043655, -0.034883
0.321783, -0.020755, 0.140318
0.322015, -0.029965, 0.155484
0.207007, 0.040803, 0.078837
0.327018, -0.054951, 0.102627
-0.014488, 0.194909, -0.289454
0.194297, -0.049091, -0.083616
0.205038, -0.002706, -0.141370
0.158079, -0.065594, -0.176653
0.181189, 0.028491, 0.042572
-0.075552, -0.161464, -0.770989
0.374208, -0.098354, -0.003092
0.230093, 0.013096, -0.176836
0.243982, 0.021405, -0.265326
0.245854, -0.032628, -0.154198
0.227557, 0.016345, -0.139792
0.118210, -0.350917, -1.239908
0.153270, -0.250315, -0.490191
0.235984, 0.006836, -0.254441
-0.076522, 0.235064, -0.339598
0.229883, 0.023365, 0.135432
0.077915, -0.167955, -0.277641
0.155934, 0.016044, -0.199477
0.041604, 0.161190, -0.293956
0.176536, 0.022066, -0.101902
-0.066007, -0.241813, -0.460583
0.150168, -0.010202, -0.116571
0.162910, -0.050527, -0.110157
0.167356, -0.001372, -0.179325
0.197214, -0.049315, -0.083139
0.287024, -0.033937, -0.387637
0.313608, -0.047608, -0.395320
0.245902, 0.020631, 0.004472
0.059820, -0.022205, -0.255143
0.154721, 0.007703, -0.132530
0.254499, 0.023034, -0.039562
0.319738, 0.017682, 0.005013
0.153411, 0.022167, -0.128000
0.324210, 0.023171, -0.035828
0.180115, 0.016208, 0.015566
0.170555, 0.000878, 0.027569
0.177209, 0.036383, 0.005535
0.005538, -0.141128, -0.365906
0.350539, -0.066701, -0.367135
0.311973, -0.066948, -0.425505
-0.017103, -0.042837, -0.443752
0.327757, -0.024644, 0.057739
0.096878, 0.023176, -0.342049
0.153555, 0.024440, -0.185419
0.177781, 0.003917, -0.105886
0.428986, -0.299183, -0.562472
0.248216, -0.170785, -0.811399
0.196890, -0.068971, -0.221618
-0.044499, -0.136138, -0.515086
0.348728, -0.066131, 0.006988
0.324173, 0.023258, -0.036487
0.320875, 0.021787, 0.002723
0.150538, 0.014359, -0.137434
0.228167, -0.001499, -0.186374
0.215873, 0.018288, -0.100165
0.330452, 0.019278, 0.059781
0.317439, -0.028762, 0.167282
0.207890, 0.009347, 0.089072
0.208549, -0.033005, 0.100498
0.230842, -0.028745, 0.111774
0.234400, -0.038807, -0.087312
0.098672, -0.319783, -0.610012
0.197373, 0.013154, 0.077758
0.341544, -0.091725, -0.001779
0.214729, 0.008150, 0.105001
0.212364, 0.000710, 0.099600
0.320088, 0.008594, 0.130279
0.216859, -0.000256, 0.106737
0.321655, -0.055814, 0.067510
0.194733, 0.030341, 0.038651
0.391329, -0.124285, -0.088235
0.217161, -0.001817, 0.071787
0.318565, -0.083023, -0.006669
0.334424, -0.051920, 0.038955
0.335295, -0.030233, -0.364612
0.206160, 0.022711, 0.051156
0.214984, 0.012219, 0.070813
0.217919, -0.047966, 0.062227
-0.074197, -0.194813, -0.498446
0.263226, -0.119102, -0.686108
0.234997, -0.004986, -0.235554
0.211613, -0.005129, -0.114776
0.217918, 0.039351, -0.006660
0.218109, 0.011441, -0.101891
0.198082, -0.049558, -0.077453
0.185066, 0.017061, -0.123078
-0.004022, -0.496387, -1.809711
0.225201, -0.004190, -0.211443
0.156713, -0.191382, -0.457444
0.226018, -0.183204, -0.723599
-0.016901, -0.258914, -0.630543
-0.125531, -0.130683, -0.583817
0.253271, 0.017382, -0.298697
0.239065, -0.074181, -0.304047
0.230753, -0.005528, -0.219380
0.274564, 0.021849, -0.076142
0.224033, 0.001994, -0.116840
0.158039, 0.016631, -0.159075
0.251824, -0.049359, -0.177987
-0.203879, -0.280284, -1.037220
0.013308, -0.069208, -0.339779
0.163487, 0.019498, -0.088083
0.051051, 0.017242, -0.252707
0.221997, 0.019702, 0.089156
0.323328, -0.022816, 0.127058
0.207145, -0.000574, 0.065792
0.195872, 0.023020, 0.066601
0.336879, -0.053969, 0.035031
0.330800, -0.024484, 0.048336
0.338321, -0.032396, 0.035043
0.285102, 0.018246, 0.092071
0.322849, -0.082045, -0.017320
0.331645, 0.019025, 0.085077
0.192203, 0.016560, 0.079880
0.204086, -0.035190, 0.090826
0.202386, -0.044587, 0.054380
0.224162, 0.000914, 0.085295
0.185772, 0.028271, 0.034782
0.213499, 0.011451, 0.056809
0.315678, -0.085994, 0.014026
0.197502, -0.149061, -0.255960
0.298482, 0.024379, -0.045915
0.068033, -0.143934, -0.440692
0.155277, -0.185845, -0.595335
-0.061536, -0.175564, -0.626265
0.207926, -0.056963, -0.141025
-0.084528, -0.197116, -0.639145
0.211469, 0.015176, -0.098864
0.184826, 0.023032, -0.082582
-0.105303, -0.213952, -0.679196
0.175376, -0.088786, -0.258432
0.263948, -0.231590, -0.662934
-0.543304, -0.452200, -2.078824
0.359229, -0.090631, -0.010935
0.249411, -0.178173, -0.255389
0.273922, -0.308548, -1.011038
0.198198, -0.047513, 0.040496
0.126674, -0.070640, -0.184113
0.228561, 0.026239, 0.112485
0.277931, 0.015190, 0.152188
0.317639, -0.024527, 0.156961
0.198377, 0.013924, 0.086927
0.325872, -0.051723, 0.069847
0.213796, -0.045933, 0.091844
0.203118, 0.019866, 0.075796
0.217053, -0.003520, 0.106864
0.237136, -0.195264, -0.422796
0.243640, -0.058604, -0.175189
-0.020736, -0.234056, -0.494919
0.330433, -0.022390, 0.049337
0.322309, -0.049000, 0.117705
0.216844, 0.008211, 0.106445
0.319973, -0.030381, 0.138379
0.164240, -0.312985, -1.121599
0.250591, 0.010168, -0.297080
0.364034, -0.039190, -0.547728
0.256083, -0.019264, -0.408165
0.164832, -0.102717, -0.300362
0.012005, -0.234520, -0.451321
0.311580, 0.020224, -0.080374
0.315931, -0.024480, 0.170840
0.193356, 0.016665, 0.074760
0.255713, 0.016976, 0.147521
0.267848, -0.201290, -0.552365
0.229743, 0.015840, -0.184716
0.320137, -0.007698, 0.146227
-0.044872, -0.224070, -0.538400
0.246489, 0.013773, 0.143364
0.184497, -0.053578, -0.126184
0.137079, 0.037814, -0.059762
0.166850, 0.025523, 0.029549
0.232807, 0.017653, -0.240876
0.223233, -0.003295, -0.162914
0.237711, -0.042126, -0.129121
0.222573, -0.146070, -0.265543
0.223787, -0.039401, -0.163823
0.092205, -0.772395, -2.682329
0.220068, -0.203870, -0.594767
0.189316, 0.026780, 0.039613
0.211856, 0.000360, 0.056942
0.272011, -0.197749, -0.378102
0.388141, -0.098645, -0.324669
0.330448, -0.039016, 0.021139
0.339958, -0.054770, 0.014408
-0.022298, -0.278828, -0.623299
0.183640, -0.005717, -0.097138
0.165482, 0.023713, -0.146188
-0.039705, -0.214765, -0.426389
-0.024918, -0.259382, -0.516992
0.203358, -0.048319, 0.078051
0.208417, 0.002165, 0.088098
0.205292, 0.006019, 0.082460
0.325384, -0.052955, 0.092763
0.216413, 0.002241, 0.067032
0.341236, -0.092329, -0.004671
0.205855, 0.008475, 0.074896
0.085464, -0.140914, -0.258876
0.220799, -0.003771, 0.112572
0.269601, 0.015958, 0.133882
0.217885, -0.028961, 0.108298
0.192692, 0.014139, 0.070012
0.213516, -0.033218, 0.096213
0.322964, -0.037138, 0.130642
0.230997, 0.001830, -0.293482
0.383718, -0.143252, -0.285214
0.299518, 0.023733, -0.039809
0.278888, 0.022529, -0.034861
0.188295, -0.004863, -0.091361
0.222703, 0.013988, -0.388630
0.331908, -0.036538, -0.050203
0.187439, 0.001137, -0.130186
0.248735, -0.190671, -0.758107
0.238561, 0.001990, -0.174710
0.219493, 0.017990, 0.067269
0.204993, -0.247299, -0.994220
0.329433, -0.021712, -0.355790
0.168322, 0.009954, -0.148842
0.344006, -0.040267, -0.083043
0.213778, -0.066986, -0.240613
0.174015, 0.011122, -0.120180
0.256496, 0.023867, -0.041719
0.252067, 0.022998, -0.039185
0.190972, 0.021089, -0.031162
0.168490, -0.038120, -0.068834
0.152928, 0.013374, -0.124567
0.331101, -0.038608, -0.039516
0.334794, 0.010970, -0.084068
0.382394, -0.179533, -0.320604
0.157401, 0.012159, -0.091816
0.200524, -0.088892, -0.284208
-0.027804, -0.096673, -0.407301
0.229029, -0.043161, -0.103752
0.354751, -0.153094, -0.190667
0.215161, 0.019850, 0.058499
-0.003467, -0.236474, -0.502259
0.168994, 0.003019, -0.140114
0.210490, 0.002908, 0.069087
0.224770, 0.029982, 0.087205
0.210066, -0.056253, -0.168065
0.172378, 0.010475, -0.092903
0.210165, -0.181864, -0.258412
0.182527, -0.004138, -0.171861
0.322856, -0.037156, 0.130708
0.321099, -0.029277, 0.137569
0.204776, 0.019915, 0.096307
0.331065, -0.109676, -0.059516
0.333286, -0.062931, 0.038892
0.350874, -0.080502, 0.007204
0.196572, -0.064744, -0.195743
0.261153, 0.016788, 0.008591
0.189786, -0.005598, -0.089589
0.206480, -0.040674, -0.080448
0.400517, -0.048422, 0.022940
-0.016579, -0.229177, -0.485453
0.207122, 0.011579, -0.132788
0.156590, 0.015949, -0.125304
0.321166, 0.021488, 0.000286
0.019022, -0.089858, -0.323095
-0.054556, -0.188390, -0.449158
0.207489, -0.005455, -0.081070
-0.006700, -0.162894, -0.439348
-0.035589, -0.169193, -0.419590
0.009969, -0.137044, -0.402026
0.182328, 0.022878, -0.079707
0.364591, -0.082749, -0.241051
0.199717, 0.022710, -0.116651
0.051369, -0.205094, -0.482466
-0.056233, -0.039286, -0.469539
0.170815, -0.004522, -0.109402
0.171096, 0.012831, -0.096860
-0.046620, -0.159602, -0.684854
0.185938, 0.017125, -0.205537
0.170172, 0.016584, -0.160582
0.211193, -0.041370, 0.066833
0.369273, 0.029112, -0.017791
0.224697, 0.015100, -0.209675
0.198103, -0.181612, -0.403059
0.153559, 0.040929, -0.109126
0.169335, -0.079822, -0.251401
0.204541, 0.023145, -0.036911
-0.142763, -0.149903, -0.409002
-0.121234, -0.214287, -0.871448
