ply
format ascii 1.0
element vertex 1724
property float x
property float y
property float z
end_header
-0.354043 -0.089734 0.851906
-0.485801 0.101829 0.923744
-0.310789 -0.082400 0.805141
-0.023590 -0.036665 0.694968
-0.014828 0.045024 0.191398
-0.211756 0.001572 0.682594
-0.121661 -0.513273 1.351283
-0.087181 -0.021456 0.616865
-0.036984 0.066989 0.127567
-0.062998 0.062816 0.110764
0.020888 0.071850 0.072122
-0.041903 0.061696 0.079296
0.107395 0.055540 0.117730
-0.215124 -0.072046 0.715936
0.168661 -0.232991 1.012128
0.685762 0.280911 1.407631
0.939907 0.318129 1.454153
0.102862 -0.130560 0.812998
-0.119592 0.026968 0.168235
0.011676 0.048258 0.162402
1.426207 -0.881101 2.288259
0.033695 -0.014228 0.824374
0.590864 -0.286377 2.971615
1.588259 -0.338599 1.133453
1.305792 -0.302136 2.157848
0.323471 -0.853025 1.957661
2.122733 -1.465056 2.593661
-0.392383 0.057175 0.594171
-0.710631 0.034285 1.010944
-0.049410 0.043905 0.256422
0.298082 -0.651617 1.828929
1.723213 -0.274555 2.970978
0.876640 -0.188621 2.890309
1.130112 -0.023646 2.588710
0.720411 0.040385 2.706032
0.925174 -0.699956 2.169972
0.513725 -0.183505 2.385424
0.060656 0.057823 0.122302
0.060798 0.004944 0.238893
0.137621 -0.058753 0.467480
-0.101097 0.015802 0.156568
0.036487 0.062272 0.087175
-0.005695 0.053791 0.103126
0.346860 -0.039266 0.551366
-0.002207 0.067742 0.081066
0.044795 0.056467 0.101661
0.603166 0.123012 1.254956
0.169115 -0.153016 1.066348
1.430485 -0.705546 3.321467
0.885838 -0.274122 3.019633
0.765168 -0.549633 3.003964
2.024209 -0.196636 2.710171
1.886334 -0.133595 2.511908
2.191869 -0.151714 2.846085
0.850173 -0.737925 2.092326
0.099984 -0.031068 0.850318
0.944123 0.326514 1.476285
1.257006 0.318017 1.444269
0.489377 -0.228552 1.104936
0.170985 -0.054463 0.913104
-0.406289 -0.116411 0.845133
1.879774 -0.345672 3.163659
0.737504 -0.706437 2.934598
2.035056 -0.547772 3.217640
0.672646 -0.275665 2.607923
0.839080 -0.028081 2.913715
1.960952 -0.522872 2.938957
0.489830 -0.627049 1.873792
0.323833 -0.158876 1.002768
-0.010253 0.048340 0.307777
-0.501218 -0.500551 1.112185
1.143787 -0.191994 1.950150
2.109130 -0.366218 1.499860
0.035973 0.058553 0.095077
0.001592 0.051048 0.114233
-0.081332 0.044691 0.117972
-0.066613 0.055192 0.102662
-0.075707 0.040886 0.131378
-0.060966 0.061385 0.108704
-0.067446 0.033589 0.136729
-0.040133 0.039384 0.200185
-0.117779 0.033495 0.156799
-0.076130 0.050997 0.108595
-0.066256 0.061504 0.102140
-0.066065 0.064895 0.095496
0.025200 0.061286 0.088637
-0.047087 0.050029 0.128840
-0.082571 0.020100 0.148553
-0.071900 0.065004 0.101364
-0.046386 0.056879 0.118588
-0.091171 0.033450 0.129582
-0.063337 0.035254 0.132152
-0.071413 0.055710 0.101859
-0.020928 0.062960 0.081590
0.038535 0.060210 0.092995
-0.046484 0.061668 0.120673
-0.079692 0.021381 0.139837
-0.071872 0.048168 0.112971
-0.025088 0.062532 0.078374
-0.063361 0.037927 0.134390
-0.062728 0.054201 0.111932
-0.053597 0.038118 0.126347
-0.001939 0.067049 0.084058
-0.013493 0.063654 0.073738
-0.069121 0.058295 0.102993
-0.105835 0.033166 0.138178
-0.126358 -0.017697 0.639710
-0.381817 -0.196532 0.859174
-0.073361 0.043273 0.128040
-0.049606 0.059212 0.116485
0.083339 0.036873 0.161643
-0.367334 -0.145892 0.877437
-0.080921 0.023284 0.152944
-0.014218 -0.160610 0.666056
-0.692232 -0.308976 0.810877
-0.054274 0.047970 0.123236
-0.061717 0.044253 0.130080
-0.019209 -0.235969 0.898908
0.454931 -0.290059 1.264701
-0.047764 -0.172996 0.636243
-0.075184 -0.007272 0.644445
-0.406717 -0.288595 1.064237
0.529639 -0.353641 1.550962
-0.454475 -0.286881 0.916663
0.411299 -0.311182 1.376044
-0.068298 0.031144 0.132519
-0.048781 0.056057 0.123528
-0.485866 -0.278160 0.952307
1.833358 -0.804134 2.745471
1.769644 -1.016004 2.615237
-0.354234 -0.388683 1.384503
1.541944 -1.017561 2.608466
1.718246 -0.973700 2.523788
1.463534 -0.893031 2.320942
1.707596 -1.177658 2.780611
1.235653 -0.850990 2.279245
1.616349 -0.406189 2.887607
1.071191 -0.108569 3.006069
2.242117 -0.522711 1.413252
1.146063 0.215760 1.599411
-0.006083 -0.428062 1.846514
1.294152 -0.286226 2.246061
0.065400 -0.225931 1.052748
0.228678 -0.283980 0.948380
0.385636 -0.231738 1.186709
0.228040 -0.283285 0.948495
1.029366 -0.213676 1.883013
0.056618 0.068077 0.073115
-0.061437 0.028167 0.161069
0.042800 0.066747 0.075507
-0.014228 0.067936 0.073090
-0.084926 0.042787 0.117529
-0.085158 0.047063 0.115708
0.034179 0.065959 0.088336
-0.099081 0.021509 0.151061
-0.053860 0.058807 0.114567
0.002922 0.061339 0.093399
0.025346 0.039925 0.149930
0.079091 0.060539 0.095379
2.451102 0.067749 2.357655
4.137490 0.054673 2.283868
2.122493 -0.846456 2.568622
2.374038 -0.566581 3.362445
-0.185727 0.012290 0.666016
0.108261 0.054837 0.118669
-0.039234 0.048840 0.146916
0.300475 0.040426 0.327089
0.083576 0.060039 0.096994
-0.063847 0.061659 0.103033
0.153340 -0.016490 0.419582
0.069902 0.076993 0.056766
-0.360770 -0.066446 0.817519
0.578791 0.021678 2.522898
0.573949 -0.560091 1.715893
2.159555 -0.464954 3.694555
2.128187 -0.662837 1.503681
-0.063307 0.061106 0.104645
0.016030 0.072843 0.065629
-0.073458 0.077471 0.093487
0.002747 0.074165 0.051444
0.017140 0.059504 0.070783
0.004998 0.066154 0.071475
0.001882 0.067814 0.069128
-0.161014 -0.085580 0.734088
0.020259 0.066056 0.075383
2.476960 0.032720 2.022442
2.058511 0.027347 1.747609
0.179376 0.157928 1.247580
0.383437 0.100061 1.084714
-0.681709 -0.554864 1.054044
0.017842 -0.005201 0.644668
0.085049 0.032215 0.176258
1.461227 0.126149 1.123883
1.405704 0.116081 1.052765
1.404170 0.114189 1.053120
-0.077693 -0.061221 0.627785
0.480564 -0.415622 1.929356
-0.277330 -0.502684 1.178797
-0.020616 -0.033953 0.700435
-0.011137 0.046378 0.149446
0.564603 -0.047439 1.179528
0.525058 0.143786 1.279818
0.155280 -0.179644 1.096259
0.219165 -0.293685 0.949461
0.088808 -0.249563 0.944382
-0.089788 -0.061018 0.607318
-0.071967 0.064991 0.097950
-0.024757 0.064060 0.078063
-0.008137 0.060223 0.085350
-0.004207 0.066377 0.084509
0.431144 -0.276816 1.219991
0.144836 -0.252630 1.081540
0.397420 -0.202947 1.042308
0.064582 0.032524 0.167173
0.383575 -0.179290 0.953738
-0.225381 -0.108226 0.860256
-0.078987 -0.087856 0.630764
-0.378259 -0.175498 0.879140
-0.389983 -0.410756 1.343968
-0.040749 -0.149934 0.672783
-0.585923 -0.322220 0.851641
-0.488656 -0.123361 1.153199
0.608182 -0.298156 1.263067
0.078098 0.029379 0.182153
-0.084914 0.052553 0.104808
-0.005100 0.071683 0.058475
0.035058 0.069727 0.068023
0.043487 0.063379 0.082156
-0.066482 0.024517 0.150830
-0.015244 0.072735 0.053776
-0.046578 0.063565 0.075867
-0.003556 0.073534 0.055477
-0.014537 0.057714 0.095541
0.035362 0.066570 0.073538
-0.075214 0.069955 0.096474
-0.064149 0.076156 0.095035
-0.078274 0.070361 0.095611
0.230862 -0.138281 1.007053
0.658512 0.091508 1.356297
0.156275 -0.253253 1.079292
0.340190 -0.183856 0.995225
0.989882 -0.155542 3.324690
1.457776 -0.425258 3.093992
0.754022 -0.717744 2.917731
1.054323 -0.089669 2.622622
0.509729 -0.193928 2.421644
0.082461 0.055586 0.106442
-0.074177 0.048763 0.111545
-0.055805 0.069455 0.100567
-0.070017 0.024673 0.155402
-0.012884 0.053973 0.107184
0.017466 0.066862 0.072248
-0.018815 0.065676 0.070710
0.029636 0.070714 0.064301
0.025456 0.061250 0.089119
-0.091791 0.036482 0.133624
-0.084603 0.043179 0.116674
-0.065014 0.048416 0.127420
0.056303 0.065575 0.083369
-0.076192 -0.060507 0.620204
0.002146 0.067519 0.068880
-0.013946 0.061559 0.080995
0.041971 0.066800 0.075829
0.036986 0.071233 0.062736
0.031921 0.070106 0.063118
0.022999 0.056757 0.102008
-0.057987 -0.027707 0.598413
0.041662 0.072358 0.063230
0.041724 0.062751 0.084888
0.015682 0.059570 0.099681
0.060013 -0.157428 0.881971
0.031203 0.058760 0.096175
-0.191880 -0.105561 0.808624
-0.065771 0.034988 0.139576
0.075971 0.042996 0.140272
0.213013 -0.352362 1.138791
-0.143329 -0.213221 0.979465
-0.081038 0.041224 0.125154
0.027156 0.054890 0.105523
-0.065223 0.057645 0.103793
-0.083122 0.040397 0.128636
-0.064560 0.057912 0.106978
0.070696 -0.192699 0.887541
0.040272 0.065718 0.078300
0.034387 -0.215025 0.905562
-0.022836 0.063095 0.077912
0.258720 -0.303184 1.012146
0.102161 -0.160891 0.825059
-0.010219 0.057908 0.094265
0.572108 -0.350520 2.596136
0.911313 -0.039491 2.887671
0.093896 -0.219843 1.593868
-0.774040 -0.442326 1.011049
-0.137570 0.022931 0.210298
-0.010473 0.050295 0.091821
-0.075208 0.022817 0.147557
-0.012317 0.056970 0.096985
-0.006991 -0.169105 0.563822
1.216021 -1.318627 2.647382
0.045023 0.081708 0.044884
0.031924 0.071717 0.061317
0.085202 0.081059 0.049154
0.046829 0.080924 0.046240
-0.009554 0.079391 0.036027
-0.009706 0.079700 0.036473
0.478388 -0.416152 1.944624
1.232583 -0.310256 2.375258
0.150044 -0.018655 0.438312
0.699324 -0.571996 1.826636
0.613719 -0.290978 1.398312
0.206666 -0.293805 0.924546
0.177388 0.171240 1.297829
-0.056062 -0.172064 0.600941
0.145724 -0.285808 0.949694
-0.375092 -0.173034 0.845121
-0.028076 0.057887 0.117389
-0.348519 -0.038054 0.795698
-0.601037 -0.082224 1.002756
-0.329226 0.089548 0.704206
0.692418 0.349594 1.224247
0.257455 -0.136930 1.041254
0.526295 0.103780 1.263382
0.879544 0.193301 1.082744
2.543414 0.018352 2.199929
2.469648 -0.109220 1.978891
1.098727 -1.317383 2.735563
2.354831 -0.494344 2.522667
-0.055768 0.070387 0.107917
0.003578 0.069053 0.091885
-0.043457 0.046586 0.144727
0.692122 -0.588904 1.863034
0.184305 -0.467018 2.221125
1.392215 -0.230117 2.824337
0.004773 0.072467 0.053232
0.006233 0.073019 0.055143
2.090485 0.191530 1.597380
-0.015201 0.050727 0.108235
0.031093 0.062438 0.085908
2.299782 0.066733 1.510196
2.474393 0.031951 2.019286
2.035122 0.202920 1.677119
1.400112 0.114596 1.049696
0.078765 0.060110 0.095248
1.449480 0.149065 1.123860
1.414690 0.124955 1.067367
1.396935 -0.129398 1.883181
-0.017283 0.060275 0.086634
-0.095920 0.024696 0.145207
-0.070157 0.046208 0.120844
-0.014578 0.072421 0.053866
-0.022239 0.074767 0.046205
0.045137 0.071655 0.061044
0.045263 0.081091 0.044464
0.054909 0.078172 0.055546
0.091607 0.073368 0.062775
0.302962 0.039005 0.338759
0.063188 0.059772 0.095097
0.063302 0.059590 0.094841
0.117568 0.055195 0.112712
0.047147 0.071547 0.062765
0.318677 0.057773 0.291779
-0.141755 -0.176516 0.970620
1.922281 -0.999163 2.651204
-0.329901 -0.087012 0.851636
-0.054610 0.067267 0.077211
-0.079102 0.055787 0.098598
0.077102 0.071680 0.067108
0.236188 -0.128389 2.146016
0.454239 -0.473027 1.553232
0.607351 -0.393136 1.810603
0.460656 -0.047760 2.411424
-0.024470 0.059353 0.089970
-0.064218 0.070396 0.104856
-0.058591 0.031464 0.134426
-0.029987 0.057737 0.108081
0.601962 0.126793 2.593287
0.472990 -0.499961 1.953636
1.211666 -0.137029 3.034080
0.806793 -0.692293 2.022979
0.851636 -0.450938 3.049370
1.082571 -0.058911 2.595895
0.408496 -0.670073 1.933524
-0.090610 0.036001 0.126541
-0.395529 -0.119930 1.011372
1.477611 0.199191 0.750081
0.012213 0.049836 0.170770
0.026336 -0.118687 0.715703
0.032108 0.084671 0.033109
-0.061552 0.054140 0.108105
0.066869 0.074291 0.060638
-0.051853 0.047203 0.124371
0.085615 0.048149 0.138991
0.183625 -0.171072 2.139684
0.370208 0.022208 2.327459
0.479687 0.074953 2.451544
0.966590 -0.003722 2.336706
0.194590 -0.183836 2.110836
0.901611 -0.038446 2.416381
-0.013019 0.072501 0.055701
0.081950 -0.011760 0.312253
0.005761 0.071755 0.055261
0.008240 0.074952 0.061112
-0.010006 0.071386 0.058973
0.023549 0.076152 0.064411
0.002921 0.070695 0.062292
-0.025456 0.071608 0.060406
0.024589 0.073008 0.052063
-0.011573 0.071393 0.057189
0.031237 0.071685 0.061219
0.032742 0.072002 0.061601
0.022859 0.073188 0.056615
-0.050699 0.031880 0.140836
-0.015307 0.067258 0.067881
-0.016732 0.068993 0.073661
-0.049684 0.029351 0.144541
-0.043275 0.034302 0.140918
-0.085635 0.033308 0.133803
-0.071403 0.051869 0.110383
-0.059684 0.050803 0.127125
-0.058483 0.042155 0.130121
-0.071940 0.042010 0.120325
0.005647 0.070951 0.051183
0.038993 0.028904 0.181471
0.037262 0.071541 0.055078
-0.074134 0.022822 0.137930
-0.065263 0.031621 0.135602
0.441696 -0.255400 1.149743
0.050419 -0.255080 1.030626
0.084668 -0.224083 1.017191
-0.401024 -0.356220 1.167518
0.042575 -0.169136 0.778368
-0.634943 -0.294973 0.817266
2.318956 -0.930400 2.762576
-0.372089 -0.297719 1.065381
-0.017118 0.072853 0.050547
-0.059993 0.069382 0.096268
0.045691 0.072365 0.062052
0.118398 0.046926 0.137914
0.790698 -0.316845 2.713742
1.513528 -0.874589 2.273794
2.080380 -0.836687 2.733728
1.971986 -0.635746 2.592880
2.123738 -0.637331 2.721626
1.284121 0.021337 1.491340
0.327902 -0.171783 0.944884
0.087172 -0.226146 0.804597
0.387454 0.227655 1.125139
0.184727 0.139593 1.182388
0.253413 -0.064170 1.041762
0.220569 0.272390 1.310059
0.037148 0.068608 0.084056
-0.036954 0.043059 0.213369
1.394059 -0.350741 2.905877
0.161835 -0.146277 2.587338
0.292122 -0.266517 2.216653
1.111721 -0.263362 2.153814
1.378370 0.041337 2.641972
2.759213 -0.038743 2.449414
2.405373 -0.574521 2.425875
2.072130 -0.120412 2.554540
2.773835 -0.217178 1.019600
-0.030480 0.061085 0.144259
0.055608 0.057449 0.113017
0.082399 0.047181 0.146687
-0.041308 0.064942 0.122089
-0.041018 0.039666 0.769960
-0.083110 0.017515 0.161981
1.963795 -0.833126 2.718134
-0.082752 0.032630 0.136528
0.249641 -0.302175 0.982466
-0.079468 0.017939 0.155965
-0.050938 0.057467 0.109936
2.166732 -0.315461 1.629408
0.251836 -0.064909 1.041258
0.206077 -0.252080 0.782258
0.101902 -0.240777 0.901444
2.173721 -0.082305 2.616964
2.154439 -0.065746 2.665331
2.498222 -0.906299 2.316050
0.815734 -0.643757 2.008245
0.774033 0.013842 2.830872
0.992654 -0.154404 3.325408
0.065119 -0.118792 0.990288
-0.068700 -0.542722 1.268500
0.019395 0.046229 0.486265
1.440122 -0.346353 2.339794
2.334410 -1.012249 2.645113
0.210022 -0.147699 1.069604
0.012591 -0.408684 0.946647
0.140940 -0.107888 0.898403
-0.432362 -0.552624 1.051888
0.499751 -0.275113 1.692361
-0.011190 -0.169824 0.650173
0.123651 -0.243980 0.808254
-1.305590 0.083068 1.800656
0.026587 0.072396 0.069859
-0.001587 0.069935 0.063658
-0.008202 0.063053 0.081087
-0.077349 -0.061975 0.634768
0.029447 0.070397 0.063873
-0.451835 -0.312246 0.970187
-0.250023 -0.434842 1.178123
0.291259 0.005505 0.361359
0.051138 0.069539 0.069196
0.020262 0.010222 0.367025
-0.064864 0.052383 0.118286
-0.091458 0.033509 0.130396
-0.058971 0.046326 0.130497
-0.095279 0.033534 0.128647
0.027470 0.070560 0.064437
0.024178 0.061280 0.089311
0.023402 0.066731 0.079452
-0.086983 0.014534 0.640053
-0.274431 -0.554516 1.170411
0.173901 0.026033 0.305893
-0.549413 -0.095570 1.025934
-0.413700 -0.347486 0.998040
-0.369225 -0.438811 1.028350
0.054208 0.008966 0.278185
0.126301 0.043705 0.145063
-0.017408 0.065728 0.179948
-0.087083 0.047590 0.114074
-0.017520 0.063007 0.174781
-0.061172 -0.006725 0.668173
-0.710245 0.034630 1.033781
0.000319 0.040101 0.358779
0.787440 -0.296504 2.736737
1.072983 -0.048701 2.598179
1.242652 -0.030211 2.353076
2.468883 -0.969740 2.511659
2.363106 -0.666614 2.000359
2.278934 -0.496740 2.545384
2.479728 -0.813795 2.242635
2.087397 -0.317854 1.662109
2.445570 -0.961189 2.493980
2.693645 -0.640941 1.763897
2.225548 -0.595268 2.558063
0.130357 0.060806 0.102066
-0.050477 0.029235 0.146067
0.056837 0.067395 0.073030
-0.084558 -0.502563 1.332462
-0.059615 0.041994 0.133410
0.325408 0.019925 0.298277
-0.401978 -0.035948 0.859993
-0.040202 0.066428 0.130463
-0.631453 0.075466 0.853074
-0.177802 0.065829 0.543531
0.266290 -0.128678 1.050742
0.221948 -0.118042 1.006585
-0.269618 -0.072879 0.773377
0.252779 -0.308069 1.000837
0.845756 -0.110186 1.646840
-0.705242 -0.544017 1.118497
-0.075992 -0.047112 0.618844
0.003106 0.070546 0.059876
-0.059358 0.062031 0.105179
-0.070698 0.043582 0.125437
-0.062179 0.054246 0.110446
-0.004881 0.071820 0.055228
-0.006811 0.073007 0.054326
0.006141 0.071569 0.059196
-0.079690 0.020812 0.152045
-0.006657 0.072468 0.053176
-0.061633 0.052163 0.119660
0.085679 0.045741 0.149588
-0.067964 0.030511 0.131796
-0.058809 0.058321 0.112411
0.038298 0.028722 0.175168
0.041736 0.057963 0.094113
-0.055832 0.057096 0.116572
-0.078425 -0.062396 0.633618
0.056946 -0.038853 0.587879
-0.043943 0.050678 0.116758
-0.022245 -0.030320 0.671298
0.327680 -0.197326 1.046133
0.255022 -0.138807 1.084822
-0.053178 0.047409 0.123840
-0.024064 -0.004605 0.722544
0.022049 0.073676 0.064963
0.030255 0.046607 0.129975
-0.067286 0.020811 0.644522
-0.019461 0.057377 0.181626
-0.035388 0.046798 0.165964
0.003717 0.055846 0.101399
0.028353 0.070474 0.065114
0.013591 0.062650 0.082784
-0.034266 0.057626 0.146733
-0.056864 0.052331 0.122975
0.033180 0.053000 0.116450
0.062257 0.049710 0.121514
1.878560 -0.840263 2.779935
1.092149 -1.316394 2.731526
0.022955 -0.044917 0.730352
-0.139573 -0.002614 0.673552
-0.003570 0.066394 0.084828
2.478202 -0.811360 2.240537
0.028008 0.053034 0.102956
-0.040471 0.032320 0.140983
0.083875 0.069804 0.070818
0.009875 0.064468 0.078339
0.510159 -0.189436 2.421741
1.533904 -0.369135 2.789757
0.852056 0.087687 1.669037
0.263083 -0.120152 1.056821
0.098030 -0.022762 0.844799
0.618185 -0.097507 1.308399
0.096779 0.033380 0.207138
-0.040909 0.049246 0.130676
-0.004056 0.067689 0.084159
0.019996 0.057754 0.133124
2.166835 -0.433129 3.428848
1.219170 -0.362013 2.340640
1.245185 -0.337388 2.401959
1.396249 -0.369371 2.275647
2.852857 -0.297595 2.931495
2.305364 -0.580391 2.503276
2.612030 -0.554272 2.234123
2.532773 -0.921686 2.153367
2.276147 -0.515212 2.545435
2.243671 -0.790384 2.247797
-0.056294 0.066197 0.062646
-0.033234 0.063336 0.130256
-0.073328 0.077872 0.094259
0.108919 0.068177 0.120836
0.090499 0.068153 0.075344
0.050561 0.082576 0.038550
0.051263 0.083210 0.039124
0.009481 0.079916 0.039460
0.035927 0.058124 0.093999
-0.053086 0.061973 0.116157
3.698064 -0.291452 2.307749
0.642200 -0.823846 2.249289
1.809787 -0.907574 2.419504
0.637446 -0.291255 1.261660
0.142267 -0.090574 0.915651
0.031738 0.059314 0.094068
0.009281 0.064247 0.078114
2.732795 0.200828 1.162806
-0.088094 0.021323 0.140102
0.614447 -0.934933 2.328339
0.649919 -0.543872 1.798336
0.485922 -0.218142 2.381962
0.481716 -0.108553 2.419216
0.641072 -0.603762 1.778367
0.028653 -0.041954 2.174131
0.051220 0.074345 0.057779
-0.054435 0.069509 0.056753
0.063294 0.074107 0.065810
0.023221 0.057764 0.097085
0.051404 0.074722 0.058761
0.115485 0.057606 0.118055
0.002555 0.074382 0.051048
-0.356970 -0.373863 1.111637
2.471735 0.005698 2.241685
4.012271 0.045982 2.278187
2.776055 -0.189010 3.124746
1.949165 -0.638273 2.773640
1.319530 -0.830243 2.277672
-0.235755 -0.319871 1.358791
0.095323 -0.079768 0.850494
-0.540989 -0.653803 1.522476
-0.446157 -0.512908 1.083486
0.205911 -0.869715 1.754437
-0.518742 -0.510193 1.008193
0.053377 0.070744 0.062926
0.023722 -0.035862 0.711691
0.183428 0.021250 0.335634
0.083596 0.048382 0.138490
0.086502 0.067836 0.077951
0.835529 -0.636303 2.047547
0.929724 -0.695460 2.161611
0.991375 -0.742608 2.226887
1.361166 -0.276413 2.246845
0.744120 -0.502002 3.085441
1.784350 -0.168488 2.507619
1.279454 -0.361782 2.113131
-0.011481 0.071303 0.057494
0.081592 -0.000965 0.287930
-0.066345 0.011437 0.615375
0.584500 -0.573020 2.844790
0.641847 -0.605430 1.783761
1.235035 -0.646188 2.649642
1.066372 -0.749628 2.343397
1.045487 -0.442490 2.922856
1.048502 -0.440646 2.918082
-0.528497 -0.217590 1.014099
-0.059447 0.047587 0.245928
-0.281018 -0.087406 0.842330
-0.234513 -0.014160 0.783225
-0.239773 -0.004294 0.695607
2.271269 -0.775067 2.258095
0.532331 0.345621 1.216821
2.033694 -0.132424 2.373358
0.248797 0.017247 1.179546
0.080007 0.026058 0.802300
0.176598 0.430406 1.419933
-0.091001 0.020186 0.142577
1.766803 -0.167059 2.511455
0.839872 -0.681999 2.024470
1.018981 -0.376334 3.305991
0.877208 -0.259311 2.848784
3.213285 -0.481679 2.070903
3.432725 -0.015374 2.656662
2.525352 -0.093648 1.955775
2.401312 -0.556076 2.424603
2.084847 -0.140169 2.862181
1.393011 -0.692811 2.692087
1.380291 -0.365662 2.261050
0.072846 0.070290 0.062007
-0.045893 0.035833 0.157108
-0.006130 0.070629 0.060973
-0.005754 0.054068 0.104250
0.331565 -0.297152 1.449230
0.383406 -0.216358 1.210222
0.227705 -0.332399 1.533155
0.287991 -0.257620 1.249588
0.431464 -0.259304 1.237398
0.319290 -0.286307 1.414904
0.389661 -0.239898 1.181402
0.706031 -0.118933 2.693723
0.707170 -0.499365 3.112276
0.653086 -0.616710 2.856197
0.103938 0.057649 0.097070
0.069314 0.076859 0.062214
0.064449 0.072376 0.081345
-0.065988 0.061983 0.103144
0.012882 -0.033333 0.649580
0.033339 0.067454 0.087636
-0.063746 0.052025 0.117350
0.050547 0.082132 0.042690
0.145276 0.047560 0.149506
-0.063641 0.066752 0.101616
0.071167 0.060332 0.090452
0.181069 0.041312 0.269433
-0.579629 -0.316482 0.845303
1.262647 -0.904845 2.318470
0.137480 -0.316982 1.043274
0.213552 -0.131475 1.034509
-0.389875 -0.033880 0.834067
-0.060256 -0.009399 0.661681
1.994035 0.356308 1.615106
0.897941 0.076251 1.694854
0.354250 -0.306575 1.457039
1.045062 -0.044456 1.827989
0.211611 -0.274505 1.362540
0.225470 -0.340066 1.552163
0.600275 -0.587133 2.870180
0.588390 -0.326095 2.920573
2.490090 0.102722 2.235042
2.275182 -0.568137 2.528147
0.482021 -0.432491 1.942064
0.258063 -0.227627 2.163870
0.570660 -0.598936 1.754197
0.082186 -0.087429 2.086049
-0.167688 -0.163852 2.115914
-0.076079 -0.245286 2.150887
-0.211994 -0.070637 0.706426
0.071440 -0.020040 0.810240
0.071644 -0.004938 0.780476
0.259085 -0.118988 1.060672
1.147907 -0.256947 1.991177
0.583229 -0.523854 1.697979
0.540457 -0.567442 1.741653
0.103167 0.068487 0.077468
0.062633 0.076940 0.048631
-0.026430 0.042419 0.221964
-0.056943 0.041738 0.213552
1.872397 -0.609584 3.492857
0.071774 -0.020310 0.482846
1.038330 -0.218353 1.879331
2.247053 -0.331179 2.537391
2.073966 -0.442515 2.884610
0.338153 -0.186155 1.010934
0.254474 -0.061803 1.041938
0.104881 0.008323 0.349715
2.092767 -0.571487 2.708720
1.723485 -1.202965 2.839692
0.001521 0.067853 0.066110
0.005051 0.066314 0.072402
0.470202 -0.294171 1.303063
1.115784 -0.265089 2.150079
0.247837 -0.375072 2.554572
0.098718 -0.405092 2.262843
1.990107 0.353537 1.612034
1.584712 0.074799 1.265405
0.020283 -0.078814 2.156852
0.006986 0.065231 0.074947
-0.052002 0.043884 0.159494
0.023933 0.070926 0.075367
-0.006004 0.051689 0.111956
0.154192 0.048362 0.301060
1.007858 -0.150169 1.825387
0.028565 -0.369513 0.962386
0.540313 -0.649855 1.916828
0.116502 0.005351 0.349360
1.523706 0.007048 1.642764
1.053829 -0.735687 2.879826
0.092274 -0.005981 0.484975
1.416392 -0.136057 1.896298
2.214482 -0.108927 1.919446
0.938806 0.375061 1.048987
2.238141 -0.367761 1.400624
-0.029373 -0.257875 2.199666
0.026691 0.070360 0.063661
-0.078704 0.016429 0.190512
-0.014073 0.072972 0.058390
0.042370 0.066847 0.075819
0.052811 0.031074 0.174279
-0.049758 0.029429 0.145126
-0.002435 0.070228 0.062620
-0.003159 0.072041 0.056343
-0.053309 0.032030 0.152580
-0.056987 0.030531 0.153436
-0.057062 0.063123 0.105227
-0.005054 0.072367 0.056427
0.441460 -0.373010 1.727827
2.441684 -0.119738 2.114650
2.363698 0.126766 1.592565
0.025362 0.061271 0.088455
-0.058845 0.028062 0.146084
1.166189 -1.071587 2.288136
0.077502 0.032386 0.176676
0.045090 0.065469 0.078971
0.103569 0.062716 0.092409
-0.055216 0.046412 0.240144
0.085294 0.053168 0.107238
-0.075031 -0.033392 0.633649
0.117038 0.057011 0.117994
-0.017191 0.054149 0.102131
0.070431 -0.230338 0.802934
0.677992 0.087654 1.325280
1.325691 0.030531 1.469536
0.927740 -0.694705 2.156823
0.901250 -0.146502 2.895630
1.142424 -0.597440 2.761065
1.419047 -0.288332 2.269421
2.070478 -0.638982 2.729520
2.189788 -0.881891 2.577746
2.160249 -0.532090 2.730709
2.186860 -0.881148 2.575884
0.008294 0.039701 0.164088
0.020821 0.071534 0.071869
-0.040159 0.031877 0.140402
-0.021752 0.070958 0.064730
-0.304030 -0.015391 0.758406
0.536546 -0.895432 2.308812
0.792268 -0.067638 1.545214
0.071432 0.060160 0.097011
0.925638 -0.741075 2.181204
0.435639 -0.747881 1.904014
2.077896 -0.694377 3.693096
0.766546 -0.077743 1.543420
-0.030084 -0.258631 1.231640
0.789324 -0.037271 1.555609
0.390607 -0.739912 1.996098
1.435387 0.001096 1.538688
-0.074449 0.078741 0.095595
0.062660 0.073611 0.064997
0.062825 0.074196 0.065380
0.075071 0.077604 0.051745
0.056877 0.067595 0.073342
0.004632 0.066448 0.072585
0.074771 0.077192 0.051261
-0.030579 0.088750 0.077777
0.051080 0.074022 0.056718
0.070286 0.079194 0.063125
-0.053383 0.068253 0.098736
-0.059255 0.053276 0.118867
-0.047554 0.069346 0.121097
-0.075778 0.072697 0.093623
-0.060331 0.067268 0.110179
-0.017177 0.058873 0.090339
0.001653 0.051202 0.115086
-0.102134 0.043256 0.129731
-0.000234 0.036952 0.311989
0.154052 0.044626 0.216138
-0.039714 0.063494 0.117717
-0.002340 0.040775 0.348855
-0.065279 0.071458 0.106071
0.369470 -0.733300 1.978372
0.254199 0.040483 1.182049
0.574889 -0.037990 1.234539
0.584001 -0.352943 2.628230
0.064329 -0.015822 0.812537
0.095960 -0.902538 2.097975
1.568792 -0.007692 1.782028
1.085840 0.252347 1.679327
0.028319 -0.617914 1.538338
0.071976 -0.145194 0.789938
0.016600 0.073661 0.068276
0.037794 0.067187 0.079323
-0.086174 0.032561 0.134048
0.017233 0.073811 0.069175
1.350599 0.584259 1.059182
0.259732 -0.321387 1.001785
0.196782 -0.219636 1.008093
0.164542 -0.157035 1.088763
0.094766 -0.247337 0.937392
0.529515 -0.639744 1.914416
0.090938 -0.247567 0.929473
0.028254 0.073448 0.055743
0.113614 0.054000 0.116159
-0.023001 0.078113 0.042883
0.014818 0.077511 0.048618
-0.631421 -0.320511 0.852865
-0.547283 -0.247621 0.848165
0.198752 -0.139044 0.991825
1.967618 -0.826969 2.712309
-0.005282 0.066895 0.084253
-0.025831 0.069630 0.059892
-0.034423 0.073526 0.054231
0.041267 0.073166 0.059608
-0.017024 0.073022 0.052091
-0.055501 0.062332 0.121605
1.270024 -0.405972 3.067443
0.596155 -0.244212 2.522339
-0.026382 0.041739 0.224063
0.132030 0.063353 0.088326
0.157511 0.053833 0.118673
-0.015689 0.056646 0.224286
2.245723 -0.808611 2.463995
2.102167 -0.542702 2.686302
-0.085067 0.022088 0.148852
-0.045762 0.037354 0.177779
-0.080587 0.005145 0.286388
-0.042592 0.039639 0.168658
-0.057435 0.028656 0.149953
-0.045772 0.043735 0.131980
-0.054688 0.062425 0.120139
-0.045106 0.060170 0.120935
0.000099 0.072366 0.052790
0.043306 0.075361 0.056891
-0.029441 0.056715 0.104954
-0.023841 0.068959 0.062390
0.012405 0.059639 0.104723
-0.066088 0.015542 0.232586
0.054004 0.023521 0.192854
0.034471 0.065818 0.088552
-0.057124 0.058228 0.109628
0.095681 0.057487 0.106060
0.109252 0.072943 0.061420
0.119382 0.063518 0.092612
0.032866 -0.016178 0.791708
1.326259 -0.276549 2.263213
1.436634 -1.148492 2.434724
0.048863 0.048886 0.143020
0.018114 0.073198 0.068752
0.002907 0.074999 0.051714
0.030604 0.059505 0.097821
0.056490 0.020696 0.215787
-0.051305 0.055757 0.120573
0.130882 0.074260 0.060399
0.080341 0.052003 0.098851
0.177498 0.058762 0.104484
0.147106 0.070272 0.071972
0.141556 0.062633 0.104554
0.506195 -0.480345 2.884374
0.891537 -0.109521 3.007693
0.859018 -0.044814 2.928285
1.517556 -0.031893 2.184363
0.894659 -0.049571 3.218841
0.834034 -0.639075 2.055617
1.167082 -0.777513 2.491277
0.022435 0.072219 0.070283
-0.014141 0.067483 0.075715
-0.048360 0.060034 0.122051
-0.010704 0.057967 0.095100
-0.054740 0.061566 0.118733
-0.050119 0.044533 0.131774
0.078608 0.060061 0.095275
0.062905 0.041043 0.153614
-0.060025 -0.162988 0.632371
0.818447 -1.117095 2.778375
1.915407 -0.574799 2.844570
1.414086 -0.363581 2.262213
0.415296 -0.445785 2.759151
0.767614 -0.587031 3.043184
0.697010 -0.568715 1.822504
1.138897 -0.023476 2.515041
1.818914 -0.337195 3.111235
1.849093 -0.532762 2.961462
-0.060907 0.038932 0.146686
-0.081834 0.032534 0.133898
-0.034418 0.073758 0.051773
0.015278 0.075604 0.050354
0.024296 0.061356 0.088699
0.054295 0.077411 0.054105
0.043650 0.073270 0.058755
0.028853 0.073260 0.056504
2.079442 0.055120 1.671846
-0.272496 -0.490908 1.197558
0.306093 -0.160849 1.036010
0.710255 -1.215253 2.504296
1.449677 0.303258 1.163037
1.406199 0.132181 1.054465
1.806278 -0.895349 2.380554
0.245508 -0.109882 0.993518
0.025893 0.064845 0.078144
0.025955 0.064816 0.078188
-0.100732 -0.011300 0.664382
2.149096 -0.851778 2.569476
0.017042 0.066999 0.072633
-0.048839 0.063525 0.082157
0.051181 0.069740 0.069476
-0.019126 -0.258408 2.191881
0.078729 -0.301980 2.333920
0.024267 -0.081855 2.151846
0.637257 -0.917288 2.292639
0.311157 -0.650842 1.827624
0.435454 -0.762470 1.917100
0.138534 0.090216 2.253713
1.594733 -1.129925 2.577125
1.206640 -0.990921 2.542666
0.994828 -0.585462 3.040802
0.574598 -0.483152 2.049250
-0.043812 0.044803 0.132187
-0.025564 0.062671 0.078684
-0.096882 0.024000 0.146964
0.002726 -0.148393 0.779250
0.191016 0.046722 0.280149
-0.078896 0.021012 0.168927
0.073777 -0.078842 0.834852
-0.134736 -0.579831 1.516279
-0.062194 0.037839 0.150682
-0.057809 0.033646 0.135020
-0.031630 0.055851 0.166990
-0.074366 0.044611 0.131703
-0.072834 0.049386 0.130405
1.900050 -0.616480 2.839096
0.588883 -0.478859 2.870928
0.497326 -0.521555 2.901281
0.414055 -0.715357 1.989613
0.508287 -0.127385 2.438710
0.324260 -0.233693 2.381606
1.429960 -0.429978 2.872430
1.054901 -0.440231 2.919279
-0.009253 0.052197 0.200059
0.145391 0.081655 0.117745
0.121955 0.044485 0.121097
0.075215 0.077608 0.051679
0.008508 0.071801 0.058046
1.288810 -0.254187 2.113721
1.437141 0.065533 0.869399
0.652917 0.058819 1.370472
1.275038 0.227334 1.508460
0.656482 0.056207 1.379004
0.433372 -0.241116 1.030090
0.089604 0.026272 0.824156
0.101305 -0.042231 0.844613
1.899118 -0.735220 2.810495
2.029791 -0.540650 3.102275
0.735113 -0.281828 2.677195
0.580587 -0.236644 2.491216
1.348435 -0.321142 2.270480
1.766347 -0.120468 2.468817
0.894916 -0.154880 2.884019
-0.032325 0.070512 0.060279
-0.050617 0.030136 0.157312
0.098505 0.035492 0.165048
0.021279 0.046224 0.134808
0.869411 -0.108657 1.631022
2.329058 -0.984635 2.317478
2.314787 -0.983041 2.293826
0.085498 0.031518 0.175256
0.060508 0.059444 0.105173
0.943999 -0.128774 1.692920
0.228971 0.018447 0.464881
-0.211326 -0.097442 0.786126
-0.325150 -0.406050 1.119968
0.164349 -0.015209 0.425531
0.014137 -0.382075 1.000941
-0.522975 -0.323947 0.921060
0.042111 0.066638 0.075555
-0.025642 0.044502 0.214276
-0.016973 0.053992 0.101747
-0.030489 0.070520 0.057840
0.021528 0.071982 0.073344
0.097065 0.034998 0.168252
0.177360 0.024394 0.316093
-0.059910 0.051083 0.122218
0.033045 0.066474 0.087191
-0.072324 0.047436 0.123908
-0.054182 0.034587 0.118681
-0.733251 -0.108502 1.097266
2.506759 -0.016123 2.264025
0.000773 0.072807 0.055410
-0.035190 0.071338 0.056016
1.680469 -1.142066 2.724821
0.798556 -1.177726 2.886912
1.156762 -0.234359 1.981145
1.330208 -0.263077 2.689781
0.628422 -0.615575 1.785402
1.063155 -0.019875 2.506580
0.635614 -0.144812 2.571299
1.023254 -0.926511 2.506000
0.706207 -0.288340 2.660977
2.019426 -0.448779 3.579279
0.085361 -0.430740 2.279888
0.574551 -0.431681 1.942329
0.127191 0.043763 0.143214
0.307524 0.057874 0.281244
0.129224 0.050516 0.124357
0.046830 0.070683 0.061448
0.018129 0.022115 0.214009
0.092042 0.007959 0.270797
-0.016781 -0.036923 0.681709
0.327789 -0.238554 2.371100
0.763453 -0.619421 1.931940
0.607530 -0.451367 1.805277
1.007742 -1.188117 2.867709
1.362591 -0.223785 2.669185
-0.006715 0.054947 0.109438
0.036655 0.058520 0.105215
0.083626 0.070314 0.071260
0.764492 0.369425 1.363722
1.220832 -0.074199 1.825998
0.755941 0.361860 1.339418
1.049582 -0.013820 1.590687
0.994375 -0.135184 1.793849
0.649826 0.397758 1.119265
0.396168 -0.719535 1.950831
1.430340 -0.717471 2.823491
1.530593 -0.463157 2.992210
-0.015552 0.057752 0.224252
-0.021395 0.054639 0.253824
0.106726 0.037389 0.158053
0.054666 0.077151 0.054375
-0.043149 0.068415 0.062788
-0.053610 0.064942 0.110568
-0.086286 0.075308 0.091749
-0.110208 0.066664 0.081671
-0.757668 0.067805 0.793199
-0.016042 0.048510 0.186937
-0.718883 0.066108 0.751892
-0.077680 0.046650 0.112265
2.788608 -0.256612 3.002539
0.353482 -0.552641 2.037517
0.543316 0.198453 1.263903
0.965899 0.308611 1.458120
0.246578 0.039938 1.194030
0.422501 0.027943 1.052673
1.590740 -0.263673 1.143391
0.870318 -0.109881 1.632496
0.004613 -0.366253 1.034901
-0.083276 0.065528 0.088784
0.048922 -0.018505 0.519438
0.082376 0.047308 0.147455
0.044438 0.056628 0.100379
-0.081683 0.018028 0.150868
0.034969 0.049805 0.114684
0.468206 -0.470032 1.532345
0.435787 -0.015382 2.393350
-0.033650 -0.441229 2.078123
0.758823 -0.169203 2.748521
0.474956 -0.073633 2.429187
-0.042440 -0.242419 2.148555
0.140381 0.088723 2.249838
-0.018141 0.041386 0.169872
1.010721 -0.426628 2.904723
0.014345 0.062678 0.083066
0.017674 0.066994 0.073847
0.025456 0.061212 0.088685
0.029082 0.070605 0.066035
0.061105 0.034825 0.164353
0.026247 0.063744 0.079641
0.007586 0.048163 0.125023
-0.067269 0.068983 0.104508
-0.055072 0.069793 0.106650
-0.053471 0.065211 0.110487
-0.015195 0.055886 0.098806
0.059318 0.041057 0.152123
-0.000848 0.066232 0.076211
-0.047984 0.066195 0.119171
-0.082011 0.076196 0.100785
-0.000971 0.065604 0.090278
0.004338 0.065066 0.084241
0.068090 0.057105 0.103915
-0.084312 0.034856 0.132646
-0.016161 0.059194 0.090462
0.135210 0.046628 0.135471
-0.111840 0.013244 0.179920
-0.122257 -0.035441 0.707222
-0.037396 0.048389 0.137263
0.002726 0.073649 0.049563
-0.046849 0.077554 0.038018
0.041404 0.058797 0.095675
-0.052009 0.052898 0.115871
0.041103 0.052020 0.114682
2.372700 -0.198100 2.001585
0.086497 0.048300 0.141546
0.135026 0.046625 0.135153
0.131194 0.065893 0.085423
0.174923 0.059277 0.106383
0.158891 0.056415 0.113605
0.146834 0.050116 0.126680
0.105350 0.068054 0.076593
-0.007012 0.045916 0.173318
0.129746 0.044628 0.147343
0.097112 0.035314 0.167657
0.123952 0.052599 0.125877
0.027359 0.054639 0.104134
0.148167 0.063252 0.089445
0.063166 0.054189 0.121213
0.082508 0.085541 0.235359
-0.049522 0.035935 0.134677
0.084775 0.088964 0.245460
-0.076719 0.018960 0.147813
-0.060055 0.065724 0.095656
-0.059218 0.053911 0.119340
0.674051 0.039533 1.348376
-0.000464 0.069298 0.065143
0.041985 0.048507 0.121261
1.114517 -0.118504 3.079051
-0.079643 0.073844 0.094173
0.073470 0.072087 0.062727
0.072466 0.050231 0.132106
-0.066070 0.041545 0.125328
-0.060278 0.044320 0.131643
-0.048368 0.048525 0.127876
-0.085093 0.047385 0.111303
0.031455 0.078494 0.040613
-0.018945 0.065025 0.073532
0.057899 0.025268 0.192693
0.886926 -0.672007 2.106766
0.645882 -0.266363 2.590157
1.552143 -0.441146 3.014117
0.647870 -0.212871 2.609890
1.064981 -0.746771 2.340811
0.754527 -0.700160 2.813301
0.021084 0.035411 0.143065
0.934660 -1.174666 2.579041
-0.023728 -0.023907 0.711317
-0.086698 -0.048496 0.620470
0.053050 0.031172 0.174594
0.075016 0.039253 0.269514
-0.438980 0.122610 0.913152
0.174866 -0.015961 0.468267
-0.686263 -0.272771 0.758702
0.109885 -0.116966 0.924830
0.106791 0.038424 0.158675
1.796608 0.347561 1.600007
1.754040 0.354346 1.551262
0.439403 -0.669485 1.947456
0.095391 -0.375359 1.642123
0.000172 -0.320197 1.701836
1.244447 -0.324077 2.317738
0.069627 -0.270918 1.381080
-0.013477 -0.014736 0.609543
0.253805 0.007187 0.331622
0.068618 0.063139 0.088362
0.289443 -0.041545 0.419693
-0.315898 -0.506167 1.221883
0.495039 -0.005830 1.130779
0.531548 0.101941 1.278275
0.316067 -0.184183 1.061209
0.509489 0.175211 1.231888
0.096985 -0.085163 0.841871
-0.031854 0.054276 0.095171
-0.075128 0.069702 0.096622
-0.109361 0.060690 0.117040
-0.115843 0.055631 0.101654
-0.068763 0.079858 0.094804
-0.098871 0.058293 0.108452
-0.098927 0.035574 0.130180
-0.055283 0.068631 0.102916
0.044020 0.052363 0.173787
0.110979 0.083964 0.067209
0.085195 0.081785 0.049536
-0.112768 0.052364 0.130156
-0.083761 0.070117 0.094674
-0.083008 0.062930 0.079672
-0.151701 0.070395 0.195045
-0.044905 0.060190 0.098843
-0.160097 0.007877 0.614178
0.072508 -0.156786 0.801723
-0.464706 0.092791 0.825464
-0.208309 -0.064297 0.709117
-0.422882 0.084859 0.756712
-0.481121 -0.058713 0.863919
-0.045012 0.061300 0.125809
-0.053753 0.015665 0.495596
0.074713 -0.076041 0.920220
1.251490 -0.262233 2.127342
0.079026 0.036167 0.136916
0.550222 0.211526 1.294532
0.633351 0.232824 1.427262
0.441600 -0.478817 2.765790
2.335791 -0.482514 3.777892
-0.037311 0.048197 0.155092
2.143421 0.078964 1.655300
-0.087281 0.001110 0.252802
0.009930 0.064532 0.077744
0.006932 0.065234 0.075171
0.105874 0.038026 0.157185
0.090257 0.066756 0.082958
0.334809 0.019124 0.310049
0.638278 0.294871 1.346843
0.090416 -0.251844 0.925039
0.091676 -0.203857 0.934059
0.164024 -0.258420 0.884674
0.216841 0.394118 1.450336
0.129548 -0.167643 1.277902
1.089414 0.210001 1.680381
0.481330 0.281856 1.227508
0.433858 0.208027 1.149417
-0.057809 0.068509 0.100414
-0.077074 0.062349 0.101577
-0.102269 0.061075 0.104452
0.410658 -0.271306 2.386411
-0.038895 0.046745 0.132850
-0.427796 -0.129009 1.085297
-0.049936 0.061053 0.111418
0.087872 0.054076 0.118368
0.035136 0.066866 0.073260
-0.052582 0.049085 0.126218
0.050732 0.074375 0.057839
0.141071 -0.103209 0.839617
0.688356 0.055931 2.683500
0.695557 -0.845351 2.322099
0.530007 -0.638592 1.865436
0.580059 -0.523595 1.702764
0.539976 -0.563878 1.744843
1.487197 -1.016080 2.441295
0.305115 -0.240729 2.352414
-0.073847 0.077724 0.094451
-0.106294 0.057092 0.100621
-0.033745 0.058885 0.114625
-0.080989 0.072158 0.085551
0.055156 0.024710 0.197531
-0.107776 0.063412 0.086426
-0.071625 0.071874 0.100700
-0.102316 0.069062 0.094238
0.052980 0.031235 0.174614
-0.064962 0.049103 0.117668
-0.069162 0.031436 0.134384
0.063603 -0.068030 0.834482
0.389483 0.095995 1.068931
0.109062 0.039391 0.993944
2.618046 0.058540 2.527282
0.837946 -0.114204 1.571224
2.481525 -0.936556 1.815590
1.087360 0.253662 1.681032
0.843487 0.082061 1.646188
0.586340 0.091764 1.318701
-0.065438 0.072905 0.106676
-0.066628 0.073030 0.064896
0.003921 0.064177 0.082338
-0.073554 0.078599 0.094733
-0.059055 0.068559 0.102155
-0.074083 0.079011 0.095548
-0.042766 0.031395 0.146250
-0.052560 0.043689 0.142904
-0.070757 0.039230 0.130481
0.026706 0.070794 0.064061
0.004460 0.067215 0.073819
-0.026700 0.053102 0.096132
-0.020420 0.052325 0.108352
-0.000260 0.038257 0.312454
-0.584470 -0.321385 0.850241
-0.034995 0.073004 0.050724
-0.033109 0.093456 0.084149
0.024632 0.061603 0.089522
1.889448 -1.105061 2.829012
2.279122 -0.402278 2.551306
0.978800 -1.411146 2.966403
1.212973 -1.416569 2.797061
0.168019 -0.161319 1.079113
1.025815 -0.319119 2.008796
2.274771 -0.579302 1.380477
-0.277095 -0.501713 1.177407
0.018248 0.064926 0.079330
-0.054046 0.044445 0.113466
0.021062 0.051578 0.113867
0.021838 0.074675 0.062575
0.026801 0.061584 0.078248
0.051197 0.069350 0.069187
-0.328241 -0.066768 0.803809
-0.010342 0.057841 0.093944
0.005491 0.068456 0.064846
0.040590 0.072476 0.058666
0.027175 0.054964 0.104964
0.802078 -0.055621 1.555351
0.997783 -0.099071 1.831252
0.426683 -0.252696 1.226325
0.256793 -0.304262 1.433157
0.286485 -0.267232 1.341155
1.404858 -0.309458 2.227263
0.854169 -0.044694 2.908155
-0.005884 0.067131 0.083901
-0.026493 0.062519 0.078575
0.050745 0.069637 0.069459
0.548602 -0.579548 1.741439
-0.031307 0.069497 0.059632
-0.017288 0.060166 0.086509
-0.029750 0.043345 0.231218
-0.047040 0.069107 0.119954
-0.033400 0.051179 0.132021
-0.042764 0.065335 0.206390
0.048753 0.053452 0.111585
-0.077210 0.045940 0.114267
-0.005117 0.066694 0.084349
2.521445 0.107989 2.398573
0.171254 -0.019712 0.920884
-0.075698 0.023495 0.155571
-0.076039 0.037928 0.133438
0.271370 0.012238 0.314607
0.028135 0.041393 0.144061
-0.110327 0.060940 0.119715
-0.049578 0.070815 0.054052
1.960921 -0.144653 2.813379
1.291745 -0.344128 2.393029
0.578452 -0.115764 2.547715
1.941706 -0.522435 2.829548
1.179064 -0.284712 2.022257
2.481847 -0.048736 2.203880
2.193074 -0.837208 1.815708
1.530823 0.108851 0.765539
2.157631 -0.552046 3.387511
0.117733 0.042497 0.148206
0.609340 -0.384546 1.821533
0.514187 -0.138313 2.403795
0.623604 -0.235836 2.548923
0.214303 -0.196740 2.157708
0.850180 -0.453664 3.044462
1.001809 -0.115496 3.062764
-0.117474 0.055368 0.105206
0.109864 0.073993 0.061910
0.148321 0.071185 0.072702
0.142392 0.050040 0.130623
0.079180 0.071572 0.065223
0.301136 0.040562 0.325935
0.061605 0.067542 0.073418
0.037436 0.056809 0.103231
0.150444 0.063799 0.091093
0.607509 -0.452213 1.800749
0.509554 -0.134429 2.418166
-0.079463 0.073553 0.090498
-0.077443 0.066617 0.097980
-0.077520 0.050573 0.107307
-0.106677 0.058524 0.097028
0.567248 0.286013 1.319968
1.074165 0.543937 1.236688
0.371656 0.001646 1.028683
-0.111729 0.053580 0.096306
-0.037363 0.066247 0.067354
-0.634711 0.073940 0.853380
-0.037461 0.058865 0.090852
-0.071221 0.051567 0.109384
-0.106672 0.063046 0.085042
-0.094067 0.101572 0.097511
0.012946 0.077514 0.045656
-0.015983 0.066334 0.071958
0.629216 -0.582557 1.816314
1.521430 -0.419127 2.866492
0.747548 -0.183622 2.707046
0.779556 -0.762843 2.141139
0.055215 -0.078683 2.107641
0.595949 -0.463558 1.854182
1.160753 0.226772 1.601466
1.527861 -0.136502 2.546528
2.192724 0.246411 2.034636
1.486812 0.476866 1.234151
-0.059484 0.069083 0.066212
-0.083669 0.071476 0.086028
0.795503 -0.007865 0.960704
0.079062 0.070978 0.069631
0.139718 0.012050 0.326661
0.061038 0.067519 0.072968
0.047699 0.071570 0.063329
0.054803 0.077225 0.054581
0.089836 0.084981 0.050661
0.993787 -1.116464 2.578646
1.423548 -1.106623 2.361298
1.897602 -0.684589 2.828453
0.443329 -0.280093 1.232546
-0.125367 0.060522 0.129837
-0.086181 0.062155 0.089338
1.825554 -0.753393 2.982270
1.302080 -0.999830 2.404420
1.175554 -0.038882 2.583783
0.647320 -0.099896 2.614110
0.484872 -0.087045 2.410080
1.147770 -0.215710 1.996512
2.126479 -0.121056 2.473361
2.516454 0.015301 2.171320
0.012363 0.059648 0.104401
2.131354 -0.852322 2.581994
1.538493 -0.528417 3.000434
1.238411 -0.691755 2.771118
1.099026 -0.286679 2.921318
1.218225 -0.860686 2.339196
1.206998 -0.294898 2.968062
0.943400 -0.974857 2.533194
2.131567 -0.492649 3.187957
0.915978 -0.754663 2.163898
0.586626 -0.353568 2.623166
0.145760 0.062852 0.086656
0.051349 0.039420 0.143952
0.003134 0.067067 0.070825
0.002235 0.067482 0.068536
0.080708 0.048384 0.131913
0.089355 -0.008189 0.299902
-0.054976 0.040799 0.125380
1.590131 0.086296 1.269550
-0.029669 0.052687 0.107663
1.874192 -0.915156 2.702036
1.060892 -1.192169 2.612667
0.452962 0.183415 1.179904
0.146735 -0.180008 1.092788
0.168080 -0.022711 0.919396
0.091148 0.019772 0.776544
0.531487 0.341829 1.223141
0.498295 -0.004401 1.149524
-0.068143 0.069620 0.071368
-0.074378 0.060394 0.099196
-0.016006 0.074492 0.047465
0.590318 -0.262602 2.934634
0.705996 -0.287746 2.654993
1.593968 -0.624488 2.970372
1.424096 -0.381207 2.305452
1.617565 -0.432697 2.909299
1.736942 -0.754118 2.463814
1.885670 -0.893885 2.715134
0.060563 -0.014292 0.810910
0.253073 -0.200263 0.872929
-0.082204 -0.099865 0.976236
0.266672 -0.130829 1.052781
0.510469 0.176431 1.243528
0.246532 -0.067113 1.050262
0.604703 0.062366 1.306039
0.050910 0.084514 0.040742
0.080378 0.090722 0.017306
0.078284 0.048462 0.134616
0.013600 0.062339 0.082867
0.126723 0.044079 0.143737
0.066908 -0.228289 0.845697
0.030387 0.068894 0.068293
0.017251 0.073796 0.069232
0.021726 0.058307 0.097726
-0.042594 0.036784 0.151498
0.017625 0.066766 0.071871
2.334844 0.130804 1.997786
2.170306 -0.804922 1.747408
2.444439 0.141210 2.305383
0.014048 0.063004 0.084874
0.022745 0.058012 0.096318
-0.054518 0.061490 0.117681
-0.048851 0.063828 0.112246
-0.047746 0.041086 0.219697
-0.018981 0.078949 0.066829
1.474567 -0.744176 2.626382
1.417500 -0.710616 2.539787
2.065285 -0.572966 2.704936
3.493034 -0.105794 2.878561
2.106545 -0.487603 1.578507
2.147608 -0.061615 2.442214
2.605257 -0.041531 2.386039
0.157059 0.062053 0.098608
0.414353 -0.196509 1.015090
0.580877 0.090226 1.296339
0.685575 0.281016 1.391681
0.704319 0.411612 1.134561
0.172825 0.172008 1.309518
0.510908 0.383928 1.137703
-0.032677 0.046431 0.175842
-0.063342 0.049921 0.128100
-0.016701 0.059855 0.088380
0.016606 0.073500 0.067911
-0.040273 0.048685 0.150114
0.121907 0.056090 0.119042
-0.004516 0.065842 0.082224
0.116897 0.038092 0.161554
0.063945 0.079045 0.046918
0.048145 0.052913 0.112258
-0.058131 0.071294 0.097523
-0.048711 0.063558 0.112079
-0.048736 0.040397 0.246784
-0.031521 0.071930 0.063962
-0.067149 0.072667 0.046918
-0.083474 0.060799 0.096008
-0.072017 0.051086 0.109987
-0.003755 0.047595 0.121354
-0.101803 0.042801 0.129563
0.803730 -0.206581 2.801171
1.307236 -0.204256 2.562983
0.929204 -0.723663 2.150669
0.637206 -0.397152 2.914389
1.905573 -0.864115 2.716086
1.934077 -0.668672 2.787077
0.999456 -0.930943 2.539337
1.443794 -0.325983 2.286100
1.364048 -0.279002 2.229397
1.581197 -0.356585 2.871545
1.601449 -0.260382 2.698298
1.380846 -0.347065 2.234911
0.191664 0.029576 0.290741
0.131404 0.066130 0.086202
-0.027015 0.043190 0.222250
1.049888 -0.599377 2.941503
1.285017 -0.656573 2.932699
0.004193 0.055883 0.101527
-0.022879 0.074951 0.045744
0.009857 0.064480 0.078307
-0.069871 0.061952 0.102293
-0.015780 0.055686 0.097169
0.864016 -0.670256 2.074608
1.303166 -0.649395 2.845042
0.996175 -0.675875 2.996258
1.336655 -0.852624 2.725959
0.015163 0.060723 0.102059
0.124687 0.049151 0.117067
0.074903 0.077288 0.051472
-0.016852 0.059853 0.087489
0.102036 0.076499 0.053980
0.103518 0.039518 0.154143
-0.046979 0.059204 0.121398
-0.030505 0.057034 0.145884
0.115204 0.067933 0.091507
-0.024693 0.063261 0.148756
-0.046491 0.036614 0.088094
0.642499 -0.614655 1.786694
1.239740 -0.135842 3.026733
1.433600 -0.463945 2.875495
1.756571 -0.761791 2.912453
0.255955 -0.240698 2.217020
1.381761 -0.123033 1.848879
0.896956 0.196902 1.493099
1.239187 0.132681 2.068662
0.361425 -0.479400 1.342399
0.574542 -0.028551 1.231890
0.238125 -0.118024 1.005458
0.671948 0.037747 1.340327
0.208665 -0.141784 0.980951
0.095501 -0.554716 1.600303
0.255183 -0.099333 1.039873
0.012778 0.077486 0.045210
-0.073958 0.048546 0.111162
-0.065255 0.052179 0.118902
0.099108 0.036167 0.171996
0.020388 0.073929 0.061965
2.346486 -0.749348 2.315611
2.260061 -0.778966 1.919793
2.044657 -1.077654 2.628605
1.769117 -1.397285 2.663859
1.717375 -1.293334 2.648859
0.063005 0.078388 0.046575
-0.022016 0.075178 0.046906
0.045110 0.081232 0.044257
-0.049211 0.063685 0.083381
0.032607 0.070879 0.059258
-0.021134 0.075130 0.047544
0.644049 -0.616119 1.784528
0.952691 -0.012121 2.285409
0.275738 -0.186834 2.126447
0.363186 -0.161312 2.083816
1.275073 -0.142026 2.084175
0.174633 -0.605487 1.680281
0.319607 -0.142245 2.031072
0.890714 -0.656457 3.270056
1.096554 -0.217677 1.937811
0.620716 -0.920277 2.303813
1.076979 -0.268245 2.201285
0.999496 -0.375361 3.220813
0.664245 -0.571516 1.827433
1.009623 -0.374810 3.259342
0.735671 -0.285377 2.674835
0.017166 0.066974 0.072295
-0.027797 0.055757 0.100940
-0.921140 -0.066043 1.108703
0.058225 0.041189 0.158595
-0.030339 0.070603 0.057740
-0.048859 0.049635 0.131837
-0.076315 0.018608 0.151180
-0.006597 -0.207576 0.695104
0.072766 -0.055222 0.811995
0.100645 -0.100078 0.863361
-0.062197 -0.251710 2.177618
0.463062 -0.042618 2.411934
0.069144 0.076295 0.062811
-0.054257 0.061017 0.113570
0.013827 0.062767 0.084016
0.022194 0.077327 0.045139
-0.061071 0.070292 0.095332
-0.078668 0.055435 0.098497
1.253005 -0.127821 3.051965
0.361265 -0.292524 2.774856
-0.084077 0.074600 0.089919
-0.051040 0.065290 0.072864
-0.097484 0.107058 0.105807
-0.065338 0.045276 0.131339
0.166786 -0.242388 1.047999
0.803966 -0.324202 2.867920
0.904766 0.054060 2.491134
1.095631 -0.060346 2.562078
0.819726 -0.645169 2.008348
0.837172 -0.045199 2.873101
-0.015915 0.029027 0.173820
0.062446 -0.117072 0.877827
1.050240 -0.600688 2.936127
1.200279 -0.704741 2.798785
4.073487 0.668687 8.647974
-0.026179 0.042786 0.224608
-0.107524 0.063284 0.085885
-0.054875 0.068881 0.101941
-0.097412 0.069784 0.094140
0.102030 0.061733 0.102335
0.065860 0.064533 0.081733
0.011265 0.077539 0.045065
0.147802 0.053163 0.122945
-0.082182 0.076473 0.088108
-0.119633 0.057266 0.093778
-0.051119 0.074816 0.041240
-0.069543 0.067916 0.105478
-0.106085 0.058069 0.096908
-0.039767 0.073570 0.047572
3.041781 -0.159893 3.005752
0.620898 -0.463368 2.912593
0.562464 -0.269605 2.470340
0.646865 -0.312039 2.621870
1.419678 -0.328215 2.227007
0.062923 0.059676 0.094879
0.134867 0.046783 0.133657
-0.291966 -0.014757 0.751421
0.105860 0.068695 0.078385
