ply
format ascii 1.0
element vertex 1677
property float x
property float y
property float z
end_header
-0.075421 -0.011290 0.194302
-0.079487 -0.016477 0.211603
-0.031585 -0.094932 0.359234
-0.046567 -0.000818 0.147153
-0.027828 0.000027 0.143449
-0.065033 -0.031688 0.221671
-0.031370 -0.000538 0.137344
-0.111567 0.009143 0.181916
-0.047635 -0.026198 0.266457
-0.092115 0.024264 0.167554
-0.119006 0.013193 0.183862
-0.113760 -0.054666 0.199515
-0.029039 -0.002556 0.192209
-0.083349 -0.030484 0.200893
-0.224676 -0.055813 0.202348
-0.021564 0.001173 0.107968
-0.073729 -0.112277 0.373684
-0.023212 0.002297 0.136407
-0.023144 0.001668 0.135418
-0.122233 -0.036502 0.188715
-0.093159 -0.078076 0.221738
-0.080218 -0.029415 0.205950
-0.112103 -0.021884 0.186177
-0.029809 0.009089 0.167743
-0.018852 0.001369 0.108157
-0.123014 0.009103 0.186140
-0.020424 0.001822 0.103850
-0.064212 -0.083567 0.340949
-0.133003 -0.004484 0.155738
-0.019438 -0.001109 0.108499
-0.077939 -0.021220 0.206888
-0.029061 0.002436 0.103234
-0.167864 -0.024652 0.168142
-0.202309 -0.004378 0.170751
-0.101212 -0.056634 0.182029
-0.084230 -0.063092 0.243409
-0.099813 -0.020576 0.185165
-0.028488 0.001663 0.155602
-0.062324 0.004341 0.120826
-0.060979 -0.009689 0.288908
-0.133688 -0.009351 0.192200
-0.083657 0.012330 0.158495
-0.029991 0.008454 0.159740
-0.022051 0.001915 0.112185
-0.116932 -0.017588 0.188340
-0.034473 0.000021 0.138716
-0.060291 -0.033727 0.264086
-0.042618 -0.000401 0.146140
-0.043797 0.000063 0.142561
-0.065132 -0.032864 0.251731
-0.099532 -0.014833 0.185600
-0.082933 -0.014122 0.191323
-0.029404 -0.027455 0.299252
-0.034246 -0.000028 0.138942
-0.110119 -0.042776 0.181406
-0.079676 -0.022029 0.212325
-0.079238 -0.024873 0.220134
-0.070869 -0.002516 0.165502
-0.038497 0.011277 0.184301
-0.044717 0.044517 0.302232
-0.018029 -0.002663 0.116072
-0.078346 -0.067311 0.265235
-0.033787 -0.000463 0.150870
-0.024715 -0.000120 0.135671
-0.031601 0.001636 0.165764
-0.122670 -0.035370 0.182704
-0.082382 -0.038423 0.208676
-0.065918 -0.038726 0.261819
-0.178184 -0.056473 0.174351
-0.095566 -0.036370 0.199826
-0.116084 -0.002733 0.170267
-0.104202 -0.004343 0.184489
-0.057060 -0.032033 0.269357
-0.055429 0.044272 0.283144
-0.219968 -0.027987 0.206363
-0.029514 0.002966 0.159969
-0.112325 0.007939 0.176478
-0.023989 -0.016575 0.292403
-0.194291 -0.009126 0.167001
-0.275913 -0.093790 0.198111
-0.034498 0.007262 0.166656
-0.050394 -0.042844 0.267707
-0.065520 -0.004371 0.205609
-0.068465 -0.074152 0.282111
-0.088696 0.019200 0.162806
-0.019554 -0.001509 0.122413
-0.090884 -0.012516 0.186246
-0.074532 -0.033663 0.210616
-0.023928 -0.045110 0.257133
-0.086877 -0.037288 0.200982
-0.081588 -0.013851 0.189451
-0.078121 -0.012999 0.210195
-0.084438 -0.019136 0.193589
-0.081071 -0.025809 0.200568
-0.086527 -0.011993 0.186499
-0.104244 -0.008218 0.184479
-0.029684 0.000445 0.136631
-0.026262 -0.089706 0.346482
-0.022750 0.000864 0.132127
-0.041989 -0.000502 0.145563
-0.128142 0.022541 0.192149
-0.023649 -0.025306 0.293523
-0.077396 -0.012952 0.208276
-0.092573 -0.019489 0.196576
-0.070077 -0.033352 0.226453
-0.072766 -0.064989 0.276965
-0.118061 -0.004964 0.185513
-0.073522 -0.112634 0.375337
-0.030913 0.003352 0.153543
-0.082382 -0.004691 0.193797
-0.152299 -0.025070 0.208301
-0.028242 0.011258 0.131459
-0.037780 0.021563 0.198224
-0.072344 0.000617 0.128565
-0.076876 -0.008525 0.208187
-0.152223 -0.008734 0.180975
-0.083741 -0.009784 0.187835
-0.041603 -0.025181 0.267615
-0.036336 -0.008846 0.274328
-0.102422 0.024982 0.170925
-0.053629 0.034602 0.270125
-0.020577 0.002127 0.118253
-0.023277 -0.001905 0.127965
-0.083614 -0.012237 0.188883
-0.045668 -0.019082 0.248785
-0.114307 -0.008682 0.184133
-0.564025 -0.034808 0.478636
-0.099803 -0.020518 0.188643
-0.024873 0.001962 0.155313
-0.124388 -0.046383 0.190392
-0.140548 0.019893 0.202825
-0.046346 -0.002896 0.180596
-0.054957 -0.025524 0.248463
-0.043884 -0.003516 0.181532
-0.029561 -0.024275 0.288158
-0.098978 -0.014972 0.188570
-0.088720 -0.019967 0.192586
-0.052993 0.003110 0.171457
-0.077912 -0.031520 0.205675
-0.042197 0.019762 0.201574
-0.073876 -0.030911 0.201411
-0.140028 -0.019963 0.180232
-0.069005 -0.071686 0.280078
-0.023954 0.000929 0.140423
-0.036662 0.009616 0.177409
-0.101122 -0.015076 0.186774
-0.098346 -0.020410 0.189009
-0.099644 0.012841 0.176465
-0.077226 -0.030708 0.207912
-0.037545 -0.000527 0.148133
-0.025499 0.000249 0.141707
-0.046732 -0.000768 0.143299
-0.063561 -0.073564 0.301318
-0.113036 -0.006005 0.180717
-0.077671 -0.027786 0.211668
-0.057962 -0.035891 0.261890
-0.111871 -0.023526 0.185830
-0.111816 0.011851 0.183677
-0.030131 -0.000329 0.178890
-0.064284 -0.034296 0.249001
-0.031449 -0.001362 0.166002
-0.024221 0.000481 0.137088
-0.080978 0.003553 0.165940
-0.033538 -0.000609 0.150192
-0.105102 -0.004417 0.183999
-0.028391 0.000156 0.134508
-0.027077 -0.000451 0.148113
-0.107347 -0.001863 0.192596
-0.080669 -0.004721 0.220620
-0.077214 -0.030653 0.215148
-0.096462 -0.037508 0.200485
-0.033915 -0.001419 0.165821
-0.082583 -0.003119 0.166711
-0.094523 -0.027536 0.195390
-0.046857 0.002119 0.161824
-0.221927 -0.025222 0.220056
-0.092105 -0.063711 0.225985
-0.070545 -0.011561 0.223336
-0.105234 -0.008187 0.185280
-0.066254 -0.075108 0.285330
-0.116373 -0.033474 0.185118
-0.039385 -0.026157 0.275492
-0.054801 -0.003909 0.164966
-0.033074 -0.000751 0.159999
-0.029211 -0.005920 0.172268
-0.087501 -0.024561 0.193116
-0.028862 -0.002446 0.151615
-0.093657 -0.026463 0.198835
-0.062275 -0.066050 0.292578
-0.035456 -0.020529 0.241147
-0.069274 -0.019964 0.197350
-0.096619 -0.015503 0.188670
-0.173713 0.047364 0.229215
-0.053374 -0.004057 0.159962
-0.078396 -0.025660 0.213098
-0.082656 -0.019315 0.215900
-0.085623 -0.020262 0.193533
-0.095852 -0.004463 0.209176
-0.085526 -0.039867 0.206981
-0.043555 -0.003389 0.197999
-0.028717 0.002951 0.151188
-0.052193 -0.004041 0.178206
-0.033600 0.000067 0.138221
-0.031008 -0.001262 0.170024
-0.037990 -0.000505 0.149246
-0.033978 -0.000146 0.138774
-0.033545 0.000043 0.138191
-0.033270 -0.000064 0.140161
-0.033124 -0.000108 0.139973
-0.061240 -0.030222 0.261274
-0.028705 0.001305 0.146827
-0.038147 -0.000482 0.149423
-0.087364 -0.011943 0.183395
-0.031579 -0.002669 0.202929
-0.083134 -0.023444 0.212805
-0.083953 -0.042447 0.214029
-0.078934 -0.028657 0.218338
-0.029190 -0.026170 0.302692
-0.089431 -0.059471 0.235980
-0.089811 -0.013449 0.185847
-0.097662 -0.020352 0.188456
-0.031726 -0.001165 0.167998
-0.085259 -0.007426 0.186422
-0.079491 -0.066452 0.246686
-0.028581 0.000231 0.134732
-0.028534 0.000236 0.134696
-0.028408 0.000184 0.134562
-0.033238 -0.000085 0.140090
-0.051521 -0.000628 0.145768
-0.024880 0.000096 0.136983
-0.100471 -0.012775 0.184541
-0.030821 -0.000073 0.141567
-0.036445 -0.000065 0.139373
-0.024498 0.000207 0.141109
-0.025227 0.000291 0.137515
-0.077777 -0.036179 0.206116
-0.043874 -0.000866 0.151677
-0.072333 -0.002485 0.166534
-0.077708 -0.037552 0.238362
-0.123836 0.012495 0.190389
-0.132634 -0.009961 0.192405
-0.111613 -0.017033 0.183671
-0.077182 -0.025215 0.202502
-0.029366 -0.000544 0.173910
-0.112675 -0.023528 0.189069
-0.032259 -0.000425 0.138271
-0.026777 0.000602 0.143393
-0.098927 -0.073986 0.258573
-0.074626 -0.005805 0.185177
-0.104427 -0.008180 0.184659
-0.087567 -0.038615 0.202879
-0.104042 0.000690 0.179157
-0.094900 -0.012392 0.189244
-0.025113 0.000221 0.137242
-0.033394 -0.043580 0.334082
-0.080694 -0.010573 0.214297
-0.068406 -0.041287 0.282531
-0.068201 -0.029566 0.257630
-0.028339 0.000440 0.144735
-0.085683 -0.026933 0.199474
-0.037152 -0.003222 0.175840
-0.063485 -0.075941 0.281684
-0.028322 -0.016303 0.268381
-0.033015 -0.000165 0.139786
-0.084455 -0.006867 0.188742
-0.079603 -0.036197 0.213715
-0.065721 -0.072548 0.288628
-0.065328 -0.031193 0.264824
-0.066540 -0.024562 0.232905
-0.028127 -0.000115 0.141619
-0.066063 -0.008564 0.308883
-0.031537 -0.036963 0.306101
-0.085998 -0.004597 0.188323
-0.101476 0.004419 0.184815
-0.020404 -0.001067 0.123888
-0.081441 -0.037721 0.207600
-0.102580 -0.004734 0.183471
-0.079307 -0.011723 0.204729
-0.025331 0.001166 0.138779
-0.078258 -0.010308 0.211141
-0.102470 -0.020908 0.188195
-0.028084 -0.000169 0.141297
-0.038184 -0.000446 0.149490
-0.062489 -0.029496 0.223703
-0.080008 -0.004412 0.194034
-0.075844 -0.017873 0.210061
-0.076925 -0.030487 0.207916
-0.037734 -0.000474 0.148344
-0.029622 -0.002283 0.206264
-0.033715 -0.100233 0.372713
-0.084283 -0.022663 0.203261
-0.026063 0.000938 0.144741
-0.325891 0.044255 0.323077
-0.075818 -0.023217 0.220089
-0.053289 -0.043802 0.304329
-0.031672 -0.026361 0.296897
-0.075508 -0.061564 0.263805
-0.075645 -0.011023 0.181645
-0.037125 0.008956 0.194979
-0.047472 -0.015941 0.231391
-0.057829 -0.031312 0.266152
-0.027050 0.000012 0.144798
-0.026468 0.000362 0.142508
-0.026107 0.000501 0.142820
-0.037089 -0.027325 0.287934
-0.031490 -0.001359 0.165889
-0.143323 0.012698 0.206060
-0.083683 -0.018719 0.202180
-0.028186 -0.000088 0.141578
-0.028165 -0.000105 0.141511
-0.078366 -0.008502 0.211343
-0.085607 -0.025506 0.202538
-0.030589 -0.001527 0.162263
-0.184316 0.016225 0.245448
-0.028674 0.000284 0.134924
-0.030900 -0.000056 0.141659
-0.167427 0.010192 0.222586
-0.032786 0.000280 0.167114
-0.092839 -0.031936 0.195074
-0.049559 -0.042902 0.235620
-0.085155 0.025031 0.317419
-0.087066 -0.006340 0.185144
-0.242553 0.002184 0.278316
-0.077508 -0.032759 0.210834
-0.058789 -0.046839 0.306895
-0.074934 -0.015452 0.189736
-0.047661 0.014205 0.223330
-0.150449 0.027962 0.217298
-0.079995 -0.011205 0.188978
-0.059873 -0.006265 0.205820
-0.136618 0.023805 0.203382
-0.092825 -0.037799 0.196587
-0.033948 0.002109 0.166207
-0.034061 -0.007227 0.284840
-0.106224 -0.014804 0.187757
-0.026551 -0.010106 0.151162
-0.034808 -0.002991 0.185854
-0.076660 -0.021308 0.207640
-0.075908 -0.012204 0.191491
-0.053335 -0.031380 0.247986
-0.035443 -0.001799 0.141523
-0.091050 -0.039203 0.200196
-0.097465 -0.032655 0.199782
-0.044501 -0.000655 0.153053
-0.033617 -0.013471 0.311253
-0.058952 -0.039870 0.279970
-0.077790 -0.009034 0.195781
-0.155927 0.008654 0.212835
-0.058572 -0.029391 0.266884
-0.088081 -0.039574 0.208259
-0.044959 0.001403 0.157326
-0.027294 -0.003147 0.142745
-0.150352 0.008157 0.207063
-0.073596 -0.028068 0.210926
-0.062309 -0.030700 0.263150
-0.096948 -0.020199 0.187871
-0.098823 -0.007780 0.188449
-0.032797 0.000623 0.151043
-0.078070 -0.020277 0.206634
-0.112158 -0.015843 0.184690
-0.067204 0.033650 0.328272
-0.071158 -0.003356 0.276939
-0.066686 -0.073557 0.293148
-0.035835 -0.012008 0.310414
-0.077068 -0.005031 0.184914
-0.109561 -0.004646 0.186623
-0.033826 -0.084067 0.388412
-0.074447 -0.007041 0.197987
-0.046372 -0.001755 0.173805
-0.082644 -0.012120 0.202096
-0.052635 -0.010319 0.329037
-0.100591 -0.012896 0.187454
-0.096626 -0.014773 0.186655
-0.077357 -0.007430 0.201677
-0.034086 -0.003180 0.184373
-0.096488 -0.036803 0.201229
-0.081097 -0.035011 0.220576
-0.099884 -0.007725 0.187359
-0.055900 -0.030743 0.253703
-0.109619 -0.007675 0.257763
-0.061302 -0.061951 0.286577
-0.065751 -0.071718 0.304274
-0.067019 -0.097402 0.344087
-0.032287 -0.001311 0.166759
-0.061681 -0.014218 0.316691
-0.080621 -0.011958 0.200335
-0.085457 -0.044291 0.212859
-0.027104 -0.000104 0.143604
-0.025959 -0.000316 0.144410
-0.111566 -0.002227 0.186488
-0.096830 -0.019022 0.188705
-0.031737 -0.001190 0.167882
-0.085240 -0.013361 0.186238
-0.059157 0.000151 0.152421
-0.034098 0.000153 0.178491
-0.027632 -0.000077 0.142674
-0.085930 -0.027011 0.199856
-0.081056 -0.036356 0.218198
-0.032492 -0.000995 0.159328
-0.027101 0.000016 0.144366
-0.077519 -0.028343 0.215552
-0.025288 -0.000040 0.140569
-0.044380 -0.000337 0.142763
-0.030902 -0.000035 0.141664
-0.028308 -0.000001 0.141910
-0.038258 0.000398 0.140522
-0.079811 -0.015238 0.196446
-0.044074 -0.000821 0.151898
-0.083450 -0.004527 0.192796
-0.065233 -0.020284 0.186410
-0.080497 -0.029287 0.197635
-0.092664 -0.005785 0.191438
-0.031875 -0.000920 0.155031
-0.028915 -0.000307 0.147207
-0.032605 -0.003247 0.167590
-0.091395 -0.004323 0.203130
-0.095723 -0.011011 0.189257
-0.102606 -0.010094 0.196016
-0.099299 -0.011345 0.192190
-0.084875 -0.020864 0.200054
-0.076798 -0.006640 0.195253
-0.079627 -0.061849 0.245831
-0.033119 -0.000759 0.160274
-0.096926 -0.018940 0.188849
-0.076968 -0.014771 0.189250
-0.034984 -0.000496 0.151050
-0.062892 -0.068049 0.280892
-0.098380 -0.012771 0.185696
-0.034720 -0.001237 0.168990
-0.279242 0.021722 0.293070
-0.077343 -0.036505 0.212145
-0.030217 -0.006644 0.183883
-0.118415 -0.180994 0.699188
-0.203479 0.059536 0.258926
-0.177452 0.002593 0.223266
-0.083466 -0.004974 0.202888
-0.079745 -0.018746 0.215707
-0.078770 -0.008176 0.194837
-0.038659 -0.017752 0.195555
-0.041990 -0.014615 0.316228
-0.069367 -0.074615 0.283994
-0.061146 -0.013654 0.322134
-0.073052 -0.051038 0.326873
-0.068312 -0.114361 0.429743
-0.064544 0.029667 0.301767
-0.043848 -0.000854 0.151593
-0.123399 -0.025139 0.191594
-0.098929 -0.013351 0.189424
-0.045752 -0.029187 0.285901
-0.075956 -0.017803 0.211534
-0.079765 -0.033867 0.204512
-0.049992 -0.032947 0.300880
-0.038273 -0.025633 0.273080
-0.079784 -0.015482 0.192126
-0.079170 -0.011851 0.191495
-0.054982 -0.018501 0.206743
-0.033905 -0.000490 0.150952
-0.034292 -0.001514 0.165526
-0.049894 -0.013001 0.282895
-0.058161 0.042856 0.407340
-0.048664 -0.130420 0.425205
0.147464 -0.124554 0.471488
-0.048313 -0.063754 0.471581
0.000959 -0.000821 0.001994
0.004032 -0.001755 0.010419
0.000910 -0.000779 0.001956
0.081984 -0.245801 0.791407
0.084984 -0.088275 0.547128
-0.078118 -0.012261 0.192434
-0.102478 -0.062861 0.214344
-0.083250 -0.084219 0.196363
-0.095950 -0.080755 0.225316
-0.086788 -0.043962 0.216328
-0.020710 0.002323 0.045754
-0.113676 -0.098844 0.235504
-0.085346 -0.020207 0.193171
-0.077832 -0.033564 0.211755
-0.091511 -0.014871 0.188467
-0.073192 -0.074076 0.167047
-0.096769 -0.081271 0.226248
-0.085676 -0.020239 0.193607
-0.109375 -0.052327 0.197309
-0.083606 -0.006461 0.219468
-0.014313 0.002249 0.065693
-0.030765 -0.000747 0.062971
-0.067529 -0.032338 0.227585
-0.016865 0.002636 0.059002
-0.079076 -0.026559 0.215482
-0.095152 -0.061689 0.231611
-0.069624 -0.067701 0.152607
-0.082879 -0.015814 0.202201
-0.073508 -0.094391 0.282475
-0.017428 0.002181 0.055685
-0.098284 -0.061997 0.223926
-0.098989 -0.086436 0.224477
-0.095350 -0.041058 0.204020
-0.088334 -0.019802 0.192323
-0.110563 -0.230186 0.623462
-0.058109 -0.046415 0.304140
-0.019780 0.001568 0.074696
-0.019610 0.003100 0.067516
-0.077808 -0.025763 0.212898
-0.084191 -0.075033 0.259313
-0.066849 -0.032281 0.224799
-0.013764 0.002325 0.064752
0.048917 -0.017369 0.129126
-0.024877 -0.123995 0.294394
0.000739 0.000799 0.045742
0.008343 0.000878 0.079096
-0.007670 0.001597 0.046407
-0.077706 -0.020928 0.215530
-0.017151 0.001315 0.066699
-0.190232 -0.275755 1.050913
-0.019048 0.002012 0.050795
-0.080896 -0.010601 0.199983
0.054750 -0.029593 0.135499
0.054692 -0.002421 0.150110
-0.078028 -0.010231 0.197066
-0.072112 -0.074155 0.287697
-0.091545 -0.061545 0.239697
-0.012313 0.002975 0.074008
-0.036895 -0.013058 0.310729
0.068275 -0.032337 0.201467
0.001621 -0.027566 0.239380
0.046180 -0.009385 0.193206
0.153676 -0.112174 0.472402
-0.054709 -0.169962 0.443778
0.092214 -0.094786 0.261554
-0.098434 -0.079840 0.213722
-0.015554 0.002512 0.070890
-0.017409 -0.004892 0.209993
0.143595 -0.137860 0.363689
-0.022757 -0.090739 0.342573
-0.072891 -0.093884 0.281728
-0.073209 -0.065824 0.278438
-0.057946 -0.099814 0.311197
-0.107624 -0.090452 0.225785
-0.023926 0.002412 0.061348
-0.014785 0.001660 0.048017
-0.077289 -0.118064 0.470613
-0.052202 -0.040094 0.312830
-0.092082 -0.012443 0.187032
-0.018147 0.001853 0.054281
-0.038739 0.005649 0.105392
-0.018705 0.001965 0.044885
-0.071257 -0.062112 0.155859
-0.035592 -0.000722 0.075585
0.027227 -0.081282 0.449144
0.163466 -0.140994 0.474826
-0.039194 -0.057896 0.227138
-0.064965 -0.024233 0.228435
-0.068028 -0.075379 0.297304
-0.102805 -0.089945 0.219861
0.091006 -0.071602 0.195299
-0.085117 -0.019795 0.192321
-0.090594 -0.086532 0.238651
0.111857 -0.135593 0.523192
0.048160 -0.029870 0.194550
0.066585 -0.036204 0.160591
-0.083373 -0.072390 0.259869
0.106946 -0.024566 0.219954
-0.030595 0.001153 0.065001
-0.012721 -0.153466 0.376677
0.084195 -0.059548 0.225356
0.003977 -0.002016 0.008141
-0.081852 -0.038085 0.208074
0.154478 -0.146325 0.497788
0.007533 0.000848 0.074915
0.117684 -0.115854 0.310942
0.058177 -0.008323 0.157191
-0.017034 -0.038445 0.321758
-0.068122 -0.088120 0.297567
0.070971 -0.032341 0.210910
-0.022510 0.003531 0.086422
-0.006561 0.003389 0.084663
-0.058846 -0.047942 0.309026
0.041503 -0.010675 0.178088
0.097893 -0.069838 0.280241
-0.082594 -0.006507 0.218969
0.043556 -0.027502 0.176570
0.089677 -0.049950 0.298528
0.041470 -0.014459 0.119348
-0.022990 -0.005746 0.257119
0.374384 -0.309937 0.867150
-0.080583 -0.139361 0.462998
-0.018363 0.002069 0.048471
-0.109715 -0.218554 0.607703
-0.028257 -0.015497 0.302419
-0.061242 -0.029269 0.251577
0.014050 0.001089 0.089977
-0.006978 -0.152043 0.741441
-0.057730 -0.009290 0.285303
0.041982 -0.014585 0.118796
-0.072173 -0.151907 0.471755
-0.012998 0.000576 0.052450
-0.002270 0.002351 0.064702
-0.009687 0.002120 0.185726
-0.086030 -0.036577 0.199858
-0.001293 0.001417 0.062455
0.049155 -0.009226 0.157852
0.075668 -0.018296 0.172491
-0.011885 -0.004134 0.091317
-0.034461 -0.043667 0.333237
-0.065156 -0.259434 0.728117
-0.000864 -0.004504 0.183477
-0.003302 -0.005553 0.249074
0.002648 0.001361 0.061362
0.145637 -0.102703 0.301657
0.069833 -0.031943 0.178306
-0.061850 -0.094406 0.329012
0.014335 -0.027407 0.324833
-0.074046 -0.079636 0.386431
-0.031489 -0.064603 0.291472
-0.012203 0.001623 0.054749
-0.071355 -0.000680 0.152116
0.055211 -0.003664 0.149993
0.060306 -0.052342 0.164803
-0.007981 0.001019 0.042210
0.112456 -0.096110 0.292588
-0.036261 -0.013049 0.301967
-0.077464 0.016423 0.155484
-0.047458 -0.026329 0.265898
-0.033192 -0.079332 0.376316
0.149141 -0.157825 0.471652
-0.014302 -0.024826 0.287885
0.051049 -0.017492 0.160244
0.001551 -0.031503 0.267978
0.098054 -0.043960 0.260580
0.068506 -0.028038 0.174583
-0.070514 -0.085736 0.285053
0.053327 -0.002951 0.146305
-0.066124 -0.068769 0.300600
0.063539 -0.049933 0.131427
-0.084877 -0.004936 0.204000
-0.017869 0.001214 0.065122
0.248226 -0.171349 0.792206
-0.003740 0.003992 0.090481
0.129520 -0.138606 0.414005
0.043372 -0.017943 0.181789
0.042931 -0.199545 0.520604
0.056025 0.000638 0.116952
0.091132 -0.055836 0.240223
0.079033 -0.037972 0.166157
-0.078939 -0.013261 0.195588
0.082394 -0.012353 0.178929
0.045017 -0.001920 0.167438
0.043361 -0.013950 0.157675
0.054403 -0.010046 0.160584
0.067388 -0.016448 0.166099
0.012822 0.000673 0.085198
0.064364 -0.033500 0.160977
0.048201 -0.028493 0.187326
-0.065102 -0.024604 0.228656
-0.016089 -0.027504 0.301163
-0.032414 -0.077777 0.371888
-0.080222 -0.021968 0.210298
-0.169223 -0.031167 0.220753
-0.064927 -0.146042 0.341247
0.044057 -0.002973 0.191152
-0.001324 0.001620 0.064448
0.086902 -0.049221 0.231999
0.077159 0.001231 0.155954
0.059235 -0.007937 0.160875
-0.046923 -0.006770 0.259473
-0.009210 0.004956 0.101510
-0.034969 -0.069124 0.452640
0.043571 -0.056312 0.365762
0.095348 -0.088482 0.428832
0.083750 -0.143302 0.542277
0.073281 -0.020404 0.165903
-0.012172 0.001124 0.064295
-0.013723 0.002467 0.064827
0.188464 -0.134011 0.613356
0.114573 -0.087939 0.330278
0.056571 -0.019267 0.156924
0.029279 -0.015493 0.399758
0.066840 -0.022922 0.303730
0.097433 -0.102307 0.543219
-0.017212 -0.004792 0.217871
0.114400 -0.118164 0.413214
-0.077533 -0.162917 0.505928
-0.076044 -0.032995 0.215872
-0.019055 -0.145316 0.340971
-0.063807 -0.195894 0.508143
-0.033221 -0.094044 0.350355
0.058745 -0.006347 0.151552
0.090013 -0.000655 0.197702
-0.115442 -0.055498 0.192847
0.147811 -0.198470 0.474136
0.070792 -0.032976 0.157695
0.055375 -0.016782 0.158544
0.074028 -0.256987 0.622811
-0.076927 -0.090084 0.269249
-0.005024 -0.004956 0.217504
0.015442 0.001210 0.083832
0.134364 -0.138546 0.585816
0.123455 -0.206349 1.025127
0.121469 -0.126404 0.529588
-0.066460 -0.095763 0.346553
0.011861 -0.290363 0.780348
0.296366 -0.231612 0.630620
0.265493 -0.185620 0.529742
-0.010542 -0.151377 0.752467
0.139117 -0.297836 0.934681
-0.021262 -0.000502 0.364414
-0.077868 -0.009640 0.197162
0.084381 -0.056257 0.238462
0.049579 -0.013984 0.156735
-0.019736 -0.013851 0.339611
0.147835 -0.213286 0.578978
0.073689 -0.248002 0.738182
-0.015759 -0.027386 0.295468
0.188319 -0.156382 0.697849
0.044198 -0.108699 0.616983
-0.068705 -0.209321 0.545593
-0.040648 -0.142202 0.432263
0.054667 -0.009806 0.244853
0.073634 -0.156606 0.789956
0.094567 -0.195542 0.889124
0.014514 -0.048192 0.354146
-0.033617 -0.137702 0.393206
0.086462 -0.176282 0.603261
-0.033056 -0.000329 0.192202
0.000573 0.000941 0.071214
0.007282 0.000804 0.083487
0.070720 -0.147251 0.684947
-0.028807 -0.091599 0.347099
0.017865 0.005806 0.351253
0.053573 -0.029182 0.194789
0.109643 -0.114502 0.482013
0.027401 -0.052876 0.387979
-0.076239 -0.061975 0.166295
0.033377 -0.192818 0.702434
0.114977 -0.092888 0.285328
-0.056172 -0.163361 0.453313
0.043832 -0.004134 0.159343
0.100709 -0.232974 0.788741
0.046014 -0.008072 0.167276
-0.068510 -0.040946 0.266851
0.120273 -0.150953 0.410227
0.091917 -0.244330 0.877480
0.072885 -0.015799 0.167414
0.067824 -0.027702 0.170819
-0.005770 -0.028372 0.312365
0.205197 -0.380679 1.129547
-0.014483 -0.011543 0.273901
-0.002800 -0.009430 0.234535
0.003316 0.001075 0.074392
0.074000 -0.031187 0.202121
0.045237 -0.004063 0.163781
-0.061812 0.018305 0.156211
0.069475 -0.127421 0.554623
0.029703 -0.168103 0.514974
-0.014073 -0.028692 0.272380
0.113910 -0.243620 0.744170
0.088496 -0.071541 0.306444
0.060450 -0.007803 0.163743
-0.019322 -0.060120 0.312961
-0.064536 -0.010195 0.328266
0.081090 -0.294627 0.739024
-0.010787 -0.070903 0.329353
-0.101000 -0.058856 0.209321
-0.055047 -0.078280 0.304134
-0.083890 -0.166299 0.435439
-0.150847 -0.314383 0.851660
0.281671 -0.270200 0.796049
0.056078 -0.030737 0.213371
-0.027175 -0.059905 0.338059
-0.054369 -0.029815 0.268912
0.030863 -0.095348 0.413846
0.009728 -0.157344 0.588307
-0.020094 -0.053076 0.348272
-0.056871 -0.074530 0.331386
0.065578 -0.006645 0.167640
0.159018 -0.197201 0.754712
-0.076151 -0.023281 0.219345
0.050320 -0.019914 0.258717
-0.101207 -0.077399 0.214029
0.077094 -0.016045 0.177285
0.160697 -0.203433 0.547229
0.094400 -0.172452 0.522328
0.058594 -0.019856 0.161069
0.110556 -0.172204 0.717872
0.015346 0.001167 0.083874
0.078067 -0.097635 0.516208
-0.086502 -0.070112 0.247323
0.065385 -0.017595 0.173229
0.050610 -0.011444 0.166016
-0.056629 -0.000828 0.301076
-0.025493 -0.093223 0.345022
0.043408 -0.110136 0.416800
0.153302 -0.097649 0.446243
0.039996 -0.008549 0.168669
-0.067374 -0.077137 0.289909
-0.027744 -0.013257 0.290055
0.050328 -0.017153 0.158194
0.075132 -0.018317 0.171031
0.005699 0.001443 0.070689
0.082237 -0.000780 0.182129
0.062198 -0.054698 0.253578
0.071360 -0.211427 0.600313
0.050693 -0.004560 0.161952
-0.074565 -0.150390 0.387473
0.020529 -0.027409 0.260178
0.098958 -0.090747 0.252274
0.036953 -0.014066 0.160233
0.066563 -0.212742 0.557847
-0.030614 -0.061118 0.338518
-0.005207 -0.008705 0.212359
-0.031775 -0.027814 0.316937
0.101101 -0.183820 0.504217
0.158872 -0.153943 0.558407
0.074525 -0.041898 0.342315
0.086500 -0.163442 0.494305
0.024663 -0.031591 0.288787
-0.028481 -0.063551 0.322871
-0.070868 0.021254 0.153418
-0.049680 0.014506 0.188720
0.062595 -0.009170 0.166186
0.054159 -0.009113 0.164729
0.010966 0.000979 0.079752
0.010758 0.000786 0.078085
-0.113722 -0.022962 0.187425
0.005696 0.001434 0.070551
-0.019598 -0.007220 0.246895
0.077397 -0.021985 0.174661
0.113613 -0.196119 0.792869
0.012332 0.000810 0.086161
-0.068285 -0.005686 0.226556
-0.053487 -0.090281 0.285340
-0.033635 -0.046134 0.359271
-0.064295 -0.011598 0.221031
-0.094978 -0.068685 0.217765
0.122695 -0.260714 0.809773
0.074129 -0.044491 0.347008
0.029342 -0.022884 0.302502
-0.020749 -0.040332 0.354472
0.007475 0.000663 0.073230
0.100984 -0.086043 0.376916
-0.058894 -0.037202 0.276643
-0.105066 0.010320 0.171145
-0.020498 -0.000840 0.125138
-0.028930 -0.077673 0.373324
0.048771 -0.033663 0.314402
0.009616 0.001018 0.081604
0.005724 0.001496 0.070819
0.010868 0.000784 0.078415
0.004174 0.001110 0.069388
0.047113 -0.033865 0.313381
-0.023773 -0.118072 0.380719
0.229426 -0.306675 0.916142
0.076102 -0.181681 0.513649
0.043129 -0.215183 0.792788
-0.020215 -0.026063 0.291265
0.054892 -0.032364 0.282847
-0.094234 -0.023906 0.591210
0.007865 -0.155129 0.594170
0.087331 -0.098416 0.305313
-0.032800 -0.068331 0.354692
0.122373 -0.155301 0.941644
-0.098749 -0.075095 0.214440
-0.191455 -0.008819 0.165762
-0.162651 -0.004125 0.167362
-0.028635 -0.015042 0.307714
0.092528 -0.065518 0.292873
0.140484 -0.117342 0.447615
0.072632 -0.194181 0.594149
0.005411 -0.003003 0.075862
0.075141 -0.170199 0.580000
0.000649 0.000954 0.063781
0.087642 -0.006180 0.188256
0.098344 -0.007275 0.207380
0.002875 0.001220 0.068492
-0.051676 -0.027422 0.262719
-0.060549 -0.028733 0.261264
-0.001136 -0.022043 0.246170
-0.019908 -0.032975 0.345855
0.022747 -0.025106 0.313298
-0.026869 -0.096373 0.354313
-0.094276 -0.000731 0.183861
-0.081562 -0.026070 0.201314
-0.052091 -0.038719 0.307806
0.147282 -0.134113 0.389221
0.043917 -0.002816 0.189542
0.002635 -0.025241 0.237919
0.086826 -0.119606 0.539166
0.072106 -0.172311 0.484444
-0.080042 -0.021455 0.212695
-0.001831 -0.064343 0.547435
0.048294 -0.254894 0.757510
0.075991 -0.133659 0.591367
0.111459 -0.116063 0.601101
-0.105075 -0.006393 0.185243
0.058881 -0.031665 0.209537
-0.046690 -0.140605 0.429142
-0.077202 -0.063448 0.267476
0.073527 -0.172029 0.484535
0.045746 -0.209615 0.527806
-0.077473 -0.017123 0.208639
-0.109174 -0.177817 0.630499
0.031320 -0.208244 0.700626
0.045722 -0.155822 0.493880
0.107007 -0.000866 0.214852
-0.066731 -0.004680 0.208075
0.035478 -0.019428 0.501436
0.024234 -0.010563 0.624858
-0.278966 -0.137708 0.294556
-0.079189 -0.033476 0.203658
0.056250 -0.180247 0.603618
0.074845 -0.176355 0.493678
-0.060722 -0.028142 0.256370
-0.017317 -0.011979 0.615349
-0.049376 -0.033507 0.299475
0.068381 0.000116 0.186247
-0.094752 -0.058856 0.217892
-0.060716 0.018257 0.138229
-0.065708 0.017389 0.160741
-0.057570 0.017720 0.141656
-0.067274 0.018309 0.140445
-0.038257 -0.127176 0.371983
0.116396 -0.100233 0.302733
-0.078893 -0.012051 0.204398
0.130790 -0.155985 0.460071
0.221869 -0.173396 0.479322
-0.020881 -0.054113 0.354849
-0.071424 -0.100207 0.376310
0.001138 -0.029552 0.251753
0.013988 0.000753 0.083185
0.297540 -0.215022 0.626566
-0.089612 -0.086252 0.237506
-0.067830 -0.039701 0.265432
0.077019 -0.218226 0.672458
0.090859 -0.087032 0.451625
0.123263 -0.201758 0.589415
-0.105582 -0.074887 0.226305
0.109041 -0.133559 0.514827
-0.045447 -0.029695 0.292818
-0.052145 -0.184635 0.541545
0.068461 -0.073036 0.475823
0.003052 0.000933 0.067209
0.108925 -0.267632 0.668144
0.045435 -0.205853 0.779206
0.001639 0.000940 0.065233
0.007893 0.001125 0.074480
0.000594 0.000886 0.071084
-0.008789 -0.061408 0.436883
-0.167388 -0.010496 0.174859
-0.052179 0.009313 0.113892
0.004138 0.001071 0.069150
-0.001129 0.000778 0.067831
-0.023330 -0.069330 0.324017
-0.015025 -0.033017 0.294120
0.019272 -0.045356 0.555662
0.044897 -0.023806 0.637729
0.033671 -0.125621 0.433604
-0.076382 -0.010174 0.207696
-0.025200 -0.025668 0.271088
0.057714 -0.002360 0.162978
0.027952 -0.025078 0.240492
0.027361 -0.175685 0.600577
0.037312 -0.046243 0.307911
-0.009331 0.000191 0.085654
0.104704 -0.290802 0.688404
-0.024172 -0.008361 0.188311
0.007832 0.001550 0.072804
0.163026 -0.126222 0.545178
0.044736 -0.029346 0.282165
0.004074 0.001192 0.069540
0.025956 -0.144025 0.494515
0.098659 -0.182206 0.629199
0.030566 -0.003247 0.132016
0.109550 -0.297909 0.898877
0.002724 0.000861 0.066368
0.002665 0.000867 0.066232
0.070992 -0.035485 0.177978
-0.062706 -0.011723 0.222239
-0.035721 -0.013070 0.307122
-0.094565 -0.079471 0.223756
0.048871 -0.062186 0.327041
0.173884 -0.195169 0.601545
-0.057411 -0.153476 0.476755
0.027254 -0.278144 0.769710
0.078966 -0.087157 0.540765
-0.069416 -0.011073 0.221556
-0.088094 -0.011018 0.189105
-0.022416 -0.068080 0.329393
0.064467 -0.031270 0.195610
0.091430 -0.006934 0.197527
0.129925 -0.094790 0.359880
-0.062047 -0.004676 0.242962
-0.077680 -0.033236 0.211623
-0.057762 -0.173033 0.437852
0.060662 -0.028087 0.184111
0.025609 -0.148917 0.519391
0.165581 -0.155183 0.512171
0.042276 -0.058127 0.409814
-0.053766 -0.029134 0.268064
0.064629 -0.009845 0.295286
0.212091 -0.157900 0.774662
0.069155 -0.117249 0.483312
0.123476 -0.029336 0.746713
0.048662 -0.124346 0.696577
0.064337 -0.021118 0.541721
0.196888 -0.191288 0.499741
0.014822 0.000446 0.084286
0.007654 0.001041 0.073785
0.006755 0.001502 0.070149
0.005877 0.001172 0.071851
-0.023725 -0.141404 0.385230
0.051070 -0.222254 0.699759
-0.006439 -0.191005 0.503880
0.176630 -0.248131 0.672131
0.051051 -0.008036 0.233917
0.031809 -0.037469 0.345178
0.026473 -0.095584 0.524451
0.016407 -0.036728 0.469290
0.083898 -0.100484 0.563206
0.107147 -0.101617 0.283740
0.048848 -0.137558 0.418390
0.095863 -0.229837 0.779524
0.127333 -0.188567 0.752969
0.117604 -0.234458 0.679683
0.001892 0.000981 0.065403
0.015881 0.001391 0.084759
0.005740 0.002559 0.076653
0.007748 0.001087 0.074171
0.029511 -0.166702 0.476164
-0.011528 -0.022064 0.499924
-0.069069 -0.018973 0.240342
0.066423 -0.034352 0.314980
-0.076873 -0.037383 0.242365
0.007520 0.000759 0.073304
0.002657 0.000974 0.071084
0.015754 0.001346 0.084156
-0.029729 -0.138941 0.439159
-0.001382 0.001035 0.073746
0.007633 0.000801 0.083635
0.151384 -0.186635 0.722923
0.092016 -0.035669 0.220607
0.327679 -0.227752 0.651152
0.079335 -0.094167 0.557451
-0.041683 -0.009929 0.292644
0.018641 -0.063733 0.404375
0.165630 -0.151702 0.413816
0.059748 -0.006364 0.176721
0.116657 -0.097368 0.458560
0.094652 -0.060359 0.796056
0.051688 -0.070542 0.539550
0.138987 -0.195126 0.849566
-0.101483 -0.082627 0.218923
-0.076803 -0.007373 0.196621
-0.091410 -0.014778 0.188229
-0.028340 -0.136350 0.479332
-0.084506 -0.010054 0.183490
-0.088263 -0.039144 0.204092
0.049000 -0.008183 0.208202
0.123360 -0.277198 0.708449
0.116174 -0.146505 0.883340
-0.043480 -0.008667 0.404522
-0.058529 0.009440 0.287577
-0.072029 -0.004653 0.209946
0.103765 -0.254398 0.634530
-0.001190 0.000832 0.078679
0.009689 0.001083 0.081970
-0.047303 -0.003469 0.209088
-0.053067 0.008100 0.174760
-0.112835 -0.065106 0.194887
0.083472 -0.132755 0.551370
0.028752 -0.153023 0.472205
0.017011 0.000678 0.095336
0.026540 -0.155392 0.539983
-0.101836 -0.062019 0.213631
-0.070808 -0.078486 0.284952
0.002803 0.000399 0.102342
0.054235 -0.022284 0.199673
0.014456 0.000855 0.083759
-0.012125 -0.118790 0.498048
0.007646 0.000850 0.083929
-0.073592 -0.031660 0.220989
-0.097730 -0.101061 0.284827
-0.065411 -0.012389 0.224928
0.059596 -0.035656 0.222415
0.056930 -0.118384 0.480408
0.004095 0.001119 0.070605
-0.032778 -0.037619 0.404866
-0.028474 0.009040 0.168633
-0.064613 0.019366 0.149704
-0.095005 -0.063111 0.210090
0.056021 -0.017577 0.193287
0.005704 0.001439 0.070597
0.073641 -0.021618 0.605984
0.015228 -0.247856 0.724010
-0.057723 0.018325 0.165370
-0.040717 0.008457 0.232469
0.180830 -0.157967 0.797381
0.050053 -0.041475 0.386287
0.015968 0.001399 0.084860
0.064108 -0.016261 0.309733
0.039891 -0.209948 0.632257
-0.031850 -0.068985 0.419675
0.137794 -0.029297 0.840851
-0.077969 -0.028329 0.216711
0.011201 0.001255 0.078009
-0.080896 -0.037183 0.216709
-0.144750 -0.008118 0.161456
-0.077481 -0.007798 0.193429
-0.050768 -0.094810 0.276439
-0.021166 -0.087878 0.336054
0.008971 -0.230775 0.597139
0.032726 -0.127280 0.449599
-0.038762 -0.078263 0.412775
0.072844 -0.137588 0.615550
-0.105412 -0.005720 0.161189
-0.077784 -0.063939 0.266893
-0.078124 -0.025611 0.203898
0.059637 -0.035430 0.222863
0.014605 0.000817 0.083619
-0.051177 -0.014421 0.322626
-0.030310 0.003038 0.168210
-0.083137 -0.034452 0.203029
-0.036377 -0.026528 0.283839
0.010181 0.001183 0.077055
-0.095409 -0.072834 0.219181
0.042171 -0.005765 0.177008
0.064033 -0.021937 0.293439
0.045623 -0.008022 0.229636
0.044264 -0.002165 0.188389
-0.063573 -0.035039 0.261492
-0.081871 -0.010523 0.189698
-0.027716 -0.088094 0.409398
0.013128 -0.021524 0.248177
-0.031142 -0.092419 0.432023
-0.067479 -0.075218 0.293873
-0.017119 -0.027699 0.628926
-0.179747 -0.337681 0.873049
0.041873 -0.110337 0.611583
-0.082991 -0.030304 0.200387
-0.083198 -0.015952 0.192179
0.064765 -0.123219 0.521847
-0.054505 0.013428 0.176324
-0.078768 -0.028660 0.217823
0.173529 -0.267553 1.121801
-0.006473 -0.072743 0.552479
-0.076006 -0.023638 0.217286
-0.059549 0.018689 0.167483
0.040138 -0.128969 0.674273
0.062875 -0.015505 0.397803
0.065607 -0.040347 0.531512
-0.002595 -0.060149 0.452710
0.075802 -0.046429 0.603871
-0.090677 -0.029474 0.196531
0.045756 -0.039547 0.639630
-0.108596 -0.216116 0.684108
-0.001907 0.000453 0.106690
-0.003155 -0.043856 0.270544
0.063845 -0.137347 0.689909
0.018429 -0.302138 0.871306
-0.078013 -0.031357 0.206251
-0.081280 -0.026243 0.201299
-0.118574 -0.005025 0.185817
-0.059570 -0.014672 0.247561
-0.059842 -0.009377 0.314791
-0.021024 -0.048574 0.329707
-0.084995 -0.026669 0.198772
0.008278 -0.169807 0.635569
-0.054265 -0.013090 0.295946
0.099483 -0.051862 0.448463
-0.099120 -0.083672 0.232182
-0.010535 0.009097 0.161199
-0.043262 -0.075617 0.229136
0.021236 -0.026631 0.575915
0.023895 -0.020032 0.326562
-0.067522 0.011544 0.172696
-0.015977 -0.084099 0.265689
-0.067922 -0.040729 0.264077
0.076851 -0.047189 0.616102
-0.075577 0.020967 0.146407
-0.113168 -0.057241 0.201329
-0.082220 -0.011770 0.190768
0.088164 -0.058532 0.394896
-0.005054 -0.019080 0.233613
-0.116189 -0.055143 0.193528
-0.116463 -0.058783 0.204576
0.049300 -0.029461 0.254555
-0.032897 -0.021683 0.322547
-0.036229 -0.088009 0.444217
-0.030056 -0.075903 0.380365
-0.031867 -0.049797 0.352056
-0.036555 -0.013124 0.318311
0.028062 -0.031682 0.767135
-0.111722 -0.062878 0.196867
-0.112607 -0.022304 0.186332
0.046477 -0.281633 0.871236
-0.083238 -0.015066 0.204410
-0.055881 -0.168704 0.455320
-0.085160 -0.004603 0.191804
-0.076245 -0.031503 0.218867
-0.158007 0.027704 0.228554
-0.061183 0.017314 0.158190
-0.066439 -0.031339 0.232226
-0.063315 -0.092108 0.296247
-0.066280 -0.005478 0.222661
-0.133383 0.013594 0.158093
-0.068358 -0.090725 0.299632
-0.075709 0.019573 0.139954
-0.067503 -0.026700 0.243495
-0.010943 -0.071951 0.334212
-0.112707 -0.021900 0.186100
-0.055841 0.018000 0.142794
-0.089013 -0.017971 0.190971
-0.097415 0.015152 0.172507
-0.026603 0.008654 0.166732
-0.030710 -0.008299 0.347586
-0.073717 0.011488 0.157541
-0.078600 -0.028686 0.217377
-0.068605 -0.018233 0.238135
-0.018748 -0.012390 0.652147
-0.183660 0.003245 0.209687
-0.126171 -0.008735 0.177888
-0.055659 -0.012275 0.295396
-0.030993 -0.028898 0.295320
-0.026478 -0.094801 0.361467
-0.096371 -0.079511 0.221423
-0.077477 -0.025478 0.202939
-0.035621 0.004531 0.176605
-0.015778 -0.032224 0.287552
0.020983 -0.021448 0.510229
-0.060243 -0.017464 0.376195
-0.020170 -0.046648 0.483255
-0.056372 0.013746 0.180594
-0.143919 -0.035718 0.190098
-0.062396 -0.037051 0.266602
-0.054321 0.013137 0.176325
-0.061140 -0.039099 0.281397
-0.050377 -0.149664 0.398980
-0.070204 -0.066361 0.285015
-0.117186 -0.056523 0.194050
-0.081660 -0.036623 0.225366
-0.071352 -0.077202 0.290706
-0.062465 -0.103483 0.322515
0.035721 -0.201962 0.648822
-0.093319 -0.060423 0.229861
-0.101782 0.005506 0.177084
-0.070962 0.018563 0.143415
-0.051215 -0.039346 0.317585
-0.069810 -0.072469 0.282470
-0.117077 -0.065832 0.203150
-0.080746 -0.038477 0.213344
-0.081126 -0.005063 0.198656
-0.026025 0.004136 0.132180
-0.042884 -0.038214 0.406446
-0.016562 -0.001068 0.311674
-0.006572 -0.032250 0.352035
-0.066855 0.019964 0.149635
-0.099742 -0.067357 0.208272
-0.098804 -0.009411 0.187208
-0.092304 -0.089381 0.253758
-0.043601 0.017910 0.184201
-0.064597 -0.067332 0.298201
-0.047317 -0.019275 0.263047
-0.083677 0.008714 0.174439
-0.068439 -0.029975 0.250394
-0.064019 -0.086223 0.303100
-0.090120 -0.025321 0.195477
-0.076571 0.021831 0.157851
-0.065253 -0.011420 0.222674
-0.075458 -0.024020 0.200003
-0.068654 -0.093128 0.346019
-0.028987 -0.042796 0.332729
-0.045224 -0.106466 0.552788
-0.101604 -0.080882 0.215032
-0.099486 -0.005710 0.190021
-0.121744 -0.022325 0.182157
-0.060364 0.006758 0.211253
-0.053911 -0.044304 0.306016
-0.115834 -0.064136 0.195459
-0.092860 0.011036 0.172068
-0.027499 0.062320 0.479461
-0.168000 0.006618 0.224178
-0.112327 -0.054113 0.199748
-0.112513 -0.062220 0.194918
-0.034319 -0.008616 0.326630
-0.124269 -0.015398 0.185023
-0.077337 -0.033547 0.210225
-0.082542 -0.074443 0.255590
-0.074761 -0.092985 0.279931
0.004035 -0.042280 0.474900
-0.064133 0.009588 0.155062
-0.058768 0.019973 0.144873
-0.061292 -0.071339 0.266439
-0.034149 0.015739 0.216572
-0.044253 -0.006337 0.198286
-0.081300 -0.016987 0.198996
-0.037898 0.007358 0.163299
-0.077794 -0.031399 0.206251
-0.076901 0.012197 0.165950
-0.088032 -0.037265 0.193107
-0.066375 0.017654 0.141822
-0.098521 -0.034553 0.200495
-0.025111 0.001876 0.139019
-0.086829 -0.036782 0.201182
-0.091512 -0.012661 0.186486
-0.053386 0.017416 0.141343
-0.074905 0.000430 0.184000
-0.083655 -0.022578 0.203188
-0.078941 -0.035178 0.221137
-0.082555 -0.039849 0.219137
-0.060347 0.039248 0.369644
-0.040189 0.017629 0.193807
-0.055366 0.005808 0.206687
-0.075209 -0.033237 0.224813
-0.083271 -0.070351 0.254461
-0.052887 -0.042222 0.298338
-0.105097 -0.058171 0.204029
-0.063938 -0.034683 0.258142
-0.103440 -0.059881 0.207600
-0.067907 -0.087385 0.296639
-0.073305 -0.078812 0.278838
-0.066661 -0.028886 0.245628
-0.083334 -0.071973 0.259951
-0.112985 -0.062152 0.191921
-0.070538 0.014775 0.162182
-0.081064 -0.005264 0.199260
-0.027412 0.001123 0.152705
-0.071339 -0.084937 0.293153
-0.144161 -0.020709 0.183680
-0.127943 -0.005025 0.178910
-0.126975 -0.006389 0.178935
-0.072085 -0.088742 0.288160
-0.031993 -0.062108 0.414451
-0.040605 0.009711 0.180556
-0.095592 0.009882 0.169324
-0.053524 0.014407 0.188606
-0.071495 -0.100818 0.405138
-0.031228 0.016160 0.169458
-0.168992 -0.062196 0.181184
-0.119339 -0.005385 0.186538
-0.065718 -0.065794 0.343624
-0.066651 0.011292 0.171208
-0.083787 0.008661 0.174137
-0.070845 0.015715 0.143832
-0.137089 -0.047267 0.194281
-0.098746 -0.075002 0.210418
-0.059019 -0.059391 0.309075
-0.116730 0.018462 0.155149
-0.104828 0.011927 0.175581
-0.129951 -0.009401 0.180769
-0.139374 -0.018034 0.197266
-0.044032 0.018305 0.185765
-0.013588 0.006441 0.146037
-0.083445 0.020033 0.154918
-0.071039 0.012707 0.210921
-0.060325 0.016936 0.138961
-0.053791 0.014666 0.190814
-0.076920 -0.004678 0.203986
-0.100882 -0.062442 0.212283
-0.065680 -0.036154 0.258437
-0.065803 0.009563 0.191135
-0.069857 0.001181 0.203423
-0.046056 -0.024945 0.261896
-0.059448 -0.057110 0.310248
-0.096058 -0.039516 0.199689
-0.071812 0.024113 0.161814
-0.061357 0.021167 0.151523
-0.141454 -0.026231 0.198444
-0.084610 -0.026430 0.198402
-0.080038 -0.015018 0.198257
-0.066452 -0.016102 0.237424
-0.075957 -0.017943 0.210878
-0.124408 -0.007192 0.186345
-0.130665 -0.040367 0.189001
-0.045915 0.001602 0.214970
-0.061185 0.005984 0.214154
-0.105308 -0.059972 0.209816
-0.140629 -0.006979 0.179796
-0.083925 -0.004120 0.192734
-0.068367 -0.033432 0.228581
-0.076873 -0.090378 0.270029
-0.058265 0.048720 0.309639
-0.084359 0.010559 0.168202
-0.085239 -0.077312 0.251704
-0.048256 -0.062111 0.478471
-0.103573 -0.060405 0.212795
-0.069322 -0.070423 0.278271
-0.114153 -0.054567 0.202352
-0.026646 -0.061345 0.349095
-0.088696 -0.019979 0.192712
-0.098402 -0.013249 0.187562
-0.134089 -0.039153 0.192161
-0.064362 0.018451 0.142801
-0.064281 0.016824 0.158784
-0.081082 0.004368 0.119288
-0.183563 -0.034170 0.189397
-0.140838 -0.021666 0.171818
-0.085728 0.022095 0.148597
-0.143745 -0.055680 0.188677
-0.098823 0.028162 0.176917
-0.127314 -0.005972 0.186762
-0.100136 0.015191 0.173962
-0.138152 0.024179 0.228727
-0.054145 -0.044091 0.306401
-0.083535 -0.020566 0.198493
-0.032175 0.002360 0.179132
-0.144581 -0.008619 0.161480
-0.114639 -0.023076 0.186050
-0.094622 -0.038467 0.201017
-0.097373 -0.060469 0.207347
-0.102077 -0.035333 0.202068
-0.067153 -0.074400 0.294958
-0.093932 -0.040707 0.203094
-0.075017 -0.093513 0.280959
-0.094154 0.013106 0.181601
-0.076340 -0.022876 0.208297
-0.042368 0.026308 0.222473
-0.136647 -0.008662 0.178918
-0.057548 -0.049111 0.302310
-0.111857 -0.061220 0.196644
-0.060103 0.005595 0.218027
-0.035794 0.014042 0.204831
-0.155758 -0.031210 0.179254
-0.082543 -0.022154 0.201585
-0.158144 -0.031644 0.180868
-0.149413 -0.051940 0.190036
-0.116151 -0.064366 0.199138
-0.065608 -0.005560 0.248974
-0.015445 0.008597 0.160511
-0.104028 0.016506 0.178075
-0.079563 0.004874 0.174189
-0.074854 -0.083002 0.259022
-0.070276 -0.086035 0.285299
-0.112277 -0.061760 0.191204
-0.097456 -0.036903 0.201270
-0.111980 -0.026614 0.188158
-0.060643 -0.028983 0.262246
-0.058406 0.002626 0.108100
-0.043587 0.011389 0.193697
-0.056630 -0.004768 0.202607
-0.132935 -0.011418 0.192697
-0.080368 -0.006044 0.190843
-0.064554 -0.013384 0.252771
-0.118518 0.024070 0.190582
-0.043460 0.006708 0.134060
-0.097744 -0.005732 0.177700
-0.098556 -0.065504 0.214902
-0.100985 -0.006219 0.187452
-0.126576 0.003214 0.177351
-0.092022 -0.031516 0.197429
-0.133946 -0.031321 0.192169
-0.129770 -0.006264 0.180539
-0.075102 -0.094794 0.307744
-0.088645 0.010321 0.168475
-0.073259 0.010923 0.165168
-0.090349 -0.029142 0.195787
-0.115514 -0.064067 0.197949
-0.026436 0.000164 0.146682
-0.026282 0.000217 0.141889
-0.099648 -0.012917 0.186522
-0.080140 0.008346 0.169855
-0.051255 -0.037025 0.308106
-0.072588 -0.065657 0.277543
-0.089631 -0.024964 0.194582
-0.083789 -0.068161 0.241624
-0.061601 0.022371 0.154289
-0.107021 -0.061492 0.211940
-0.048829 0.015251 0.230169
-0.076998 0.012366 0.166031
-0.061075 0.022831 0.145398
-0.076321 0.000535 0.187082
-0.143714 -0.010209 0.182559
-0.144060 -0.055853 0.188146
-0.085799 0.013396 0.163639
-0.099697 -0.071008 0.213961
-0.138930 0.003322 0.185730
-0.127042 -0.008585 0.178244
-0.099994 -0.074064 0.211729
-0.061676 0.021368 0.148028
-0.117286 -0.006868 0.184668
-0.033788 0.002568 0.177317
-0.051375 0.032425 0.255768
-0.133919 -0.041391 0.191914
-0.062647 -0.040912 0.291879
-0.130881 -0.007843 0.189990
-0.120600 -0.005827 0.187994
-0.099513 -0.071168 0.214189
-0.032311 0.001764 0.096634
-0.113208 -0.054261 0.201492
-0.113407 -0.055476 0.200696
-0.118556 -0.054519 0.195448
-0.121649 0.005514 0.189228
-0.084714 -0.080074 0.234298
-0.118341 -0.054236 0.195160
-0.072734 -0.020230 0.217579
-0.127648 -0.005943 0.187609
-0.078507 0.016942 0.145855
-0.132933 0.021274 0.166217
-0.098002 0.023435 0.165750
-0.136419 -0.009154 0.178244
-0.170970 -0.062946 0.182353
-0.144844 -0.020232 0.183383
-0.078950 -0.018336 0.380038
-0.168119 -0.061646 0.180804
-0.043749 -0.000197 0.142328
-0.037902 0.020816 0.194341
-0.058020 -0.036935 0.272982
-0.047161 0.021505 0.222406
-0.074840 -0.007116 0.198428
-0.084255 -0.019369 0.193407
-0.056494 -0.034545 0.258164
-0.063217 -0.041393 0.309123
-0.080437 0.016031 0.148639
-0.074988 -0.020001 0.210879
-0.129142 0.001903 0.168092
-0.057010 0.013827 0.181139
-0.118003 0.011966 0.188012
-0.097041 0.033365 0.394347
-0.087493 -0.059454 0.233519
-0.049130 -0.007782 0.279140
-0.085164 -0.043221 0.213189
-0.042834 -0.025912 0.267004
-0.071565 0.022095 0.147825
-0.145356 0.024591 0.219782
-0.097314 -0.032519 0.199565
-0.050073 -0.035566 0.301345
-0.045589 -0.018590 0.253527
-0.026184 0.004861 0.145502
-0.083399 -0.004306 0.190786
-0.144970 -0.056027 0.188559
-0.091741 -0.031312 0.197155
-0.051557 -0.007161 0.244784
-0.110896 -0.022054 0.185622
-0.115002 -0.027177 0.140163
-0.019002 0.001670 0.103615
-0.082023 -0.064618 0.399202
-0.082632 0.008882 0.176293
-0.127069 -0.003780 0.174477
-0.062095 0.021134 0.141013
-0.051361 0.013808 0.184648
-0.057212 0.017832 0.164194
-0.087334 0.004823 0.162960
-0.111969 -0.011359 0.183030
-0.142228 -0.021876 0.172658
-0.036472 0.007370 0.165181
-0.091586 -0.075140 0.213433
-0.065741 0.017332 0.160657
-0.114520 -0.055184 0.191335
-0.058678 0.019729 0.206263
-0.131494 0.016780 0.166437
-0.145619 -0.017415 0.161781
-0.157544 -0.008352 0.164302
-0.145568 -0.017859 0.161695
-0.038137 0.012825 0.199849
-0.075150 -0.006334 0.197611
-0.100019 -0.009523 0.186722
-0.057218 -0.093390 0.299527
-0.140635 0.005646 0.203275
-0.129035 -0.037844 0.187489
-0.108292 -0.023879 0.183797
-0.089777 -0.010984 0.186532
-0.102843 -0.069942 0.212509
-0.027429 0.016219 0.168801
-0.098993 0.006682 0.195547
-0.079039 0.021330 0.157883
-0.037705 0.015531 0.170178
-0.143594 -0.006315 0.183020
-0.053638 0.008509 0.178080
-0.052288 0.002909 0.107542
-0.065228 0.012406 0.289023
-0.117282 -0.006779 0.159111
-0.039026 -0.003641 0.169903
-0.079930 -0.012766 0.194278
-0.114391 0.000789 0.184712
-0.110439 0.000606 0.181357
-0.138425 -0.005138 0.179432
-0.038635 -0.002143 0.126151
-0.159201 -0.060495 0.183976
-0.132487 -0.020204 0.179656
-0.135371 -0.039316 0.193343
-0.080153 -0.029280 0.206233
-0.067394 -0.027598 0.247774
-0.061821 -0.037398 0.272274
-0.130825 -0.031051 0.189729
-0.110931 -0.062323 0.195445
-0.123337 0.008149 0.194247
-0.064243 -0.083452 0.341222
-0.140959 -0.019641 0.180392
-0.024482 0.007325 0.163520
-0.092744 0.019698 0.158484
-0.172828 -0.032899 0.220645
-0.119838 0.004871 0.184685
-0.126114 -0.005437 0.177597
-0.035345 -0.013437 0.306401
-0.046225 -0.004069 0.175033
-0.089643 -0.007981 0.190346
-0.062721 -0.067295 0.292964
-0.124862 -0.009742 0.186680
-0.137518 -0.033067 0.182665
-0.049758 0.004755 0.188244
-0.130771 -0.031150 0.189653
-0.097457 0.028797 0.167538
-0.086315 -0.056255 0.216311
-0.030790 -0.000733 0.159663
-0.146633 0.002098 0.182492
-0.133443 -0.005100 0.175775
-0.097873 -0.062219 0.223223
-0.142119 -0.019403 0.173691
-0.127452 -0.007969 0.188360
-0.123600 -0.009566 0.176165
-0.118169 0.012280 0.185690
-0.113367 -0.065126 0.195448
-0.112416 -0.058203 0.195685
-0.088908 -0.017710 0.191222
-0.023693 0.011178 0.135423
-0.147715 -0.019979 0.162622
-0.143810 -0.018796 0.160607
-0.158896 -0.008625 0.164421
-0.142057 -0.003648 0.160856
-0.029823 0.001905 0.098481
-0.052712 -0.000410 0.146720
-0.034174 0.001817 0.099342
-0.027035 0.001936 0.096183
-0.034436 0.008963 0.172179
-0.110167 0.018907 0.182733
-0.024954 0.001838 0.099804
-0.027156 0.001943 0.096278
-0.079778 -0.013597 0.191755
-0.082226 -0.010584 0.190168
-0.138025 -0.019162 0.170821
-0.205960 -0.004216 0.172148
-0.113203 -0.062514 0.192735
-0.033012 0.001675 0.098933
-0.084798 -0.026576 0.198538
-0.163083 -0.003851 0.170484
-0.060589 -0.031231 0.249146
-0.090951 -0.005603 0.189588
-0.151856 -0.056889 0.179104
-0.112835 -0.026105 0.188611
-0.051548 -0.013026 0.277516
-0.039697 -0.003383 0.173604
-0.051570 -0.013082 0.276998
-0.062171 -0.032302 0.259172
-0.099316 0.026866 0.139933
-0.027966 0.007764 0.158839
-0.139944 -0.009515 0.180291
-0.126438 -0.005735 0.186755
-0.062104 0.007390 0.109182
-0.058998 0.007055 0.114059
-0.060235 0.006643 0.117859
-0.061038 0.006778 0.118458
-0.064511 0.002611 0.110194
-0.142304 -0.035892 0.154950
-0.045470 -0.003726 0.178793
-0.042834 0.019767 0.234423
-0.083765 -0.010074 0.188019
-0.030797 -0.004164 0.154368
-0.137824 -0.018709 0.170787
-0.094472 -0.024307 0.194969
-0.069543 -0.019710 0.243863
-0.098417 -0.054838 0.196866
-0.188690 -0.053380 0.237319
-0.077083 -0.030614 0.214543
-0.016567 0.000884 0.102704
-0.073016 0.006598 0.122206
-0.135413 -0.031017 0.193061
-0.141109 -0.054442 0.186934
-0.113643 -0.060104 0.196184
-0.021036 0.002604 0.122092
-0.112258 -0.008851 0.182675
-0.047686 -0.002518 0.254779
-0.051381 -0.009956 0.274806
-0.066962 -0.034223 0.256373
-0.029611 -0.000405 0.152544
-0.086308 -0.036096 0.206736
-0.090467 -0.014613 0.206101
-0.146923 0.011140 0.205891
-0.147219 0.029028 0.215049
-0.079824 -0.029205 0.205705
-0.023379 0.002613 0.137806
