0.379514, -0.013597, 0.973437
0.699482, 0.030041, 1.424652
0.424334, -0.027919, 1.014071
1.819301, 0.396565, -0.684011
1.152704, 0.233481, 0.634032
1.379304, 0.199683, 0.638279
1.211277, -0.050670, 0.790331
1.275847, 0.138924, 0.924444
2.321487, 0.604451, -0.212619
1.842405, -0.090190, 2.251576
0.399760, 0.074856, 0.992527
0.434694, 0.154999, 1.149593
0.392505, 0.054244, 1.037303
0.488722, -0.055017, 1.084995
1.321702, 0.210665, 0.766979
1.899606, -0.454149, 1.450973
1.737946, -0.220601, 0.983396
1.332284, -0.265632, 0.786751
1.322965, -0.199476, 0.791012
0.139318, -0.354833, 2.132948
0.875645, -0.340940, 2.977216
0.953610, -0.332307, 2.717288
0.135466, -0.351568, 2.137804
1.964356, 0.336743, 1.062792
1.607884, 0.239911, 1.338001
1.242684, 0.163511, 0.877960
1.828241, 0.271541, 1.434681
2.018285, 0.301209, 1.513095
1.921859, 0.189342, 1.434492
2.164160, 0.151740, 1.481581
2.244443, -0.572991, 1.120363
2.116469, -0.437580, 1.266981
1.904251, -0.144200, 0.747703
1.211463, -0.111391, 0.774062
1.326043, -0.164522, 0.818439
1.558564, -0.260705, 1.115550
2.892912, 0.192321, -2.759503
1.316294, -0.292738, 0.744010
1.582236, 0.272144, 0.499052
1.395409, 0.219069, 0.639340
1.662823, 0.715315, 0.458551
2.007437, 0.569901, -0.365403
1.783656, 0.556334, -0.284536
1.774910, 0.410434, -0.660651
1.274105, 0.199520, 0.668086
1.223765, 0.163545, 0.863447
1.228098, 0.191755, 0.889328
1.812783, 0.390489, -0.073685
1.884040, 0.138990, 1.454293
2.173026, 0.738715, -0.564146
1.956417, 0.427414, -0.237980
1.903870, -0.289315, 1.486999
1.294199, -0.415701, 2.595779
0.600786, -0.206244, 2.405017
1.397627, -0.426599, 2.739404
0.753412, -0.726893, 2.674861
0.535576, -0.059810, 2.335631
0.487748, -0.085814, 2.330724
1.325341, -0.261750, 0.748027
2.910395, -0.330377, 0.578428
2.095562, -0.490144, 1.258366
1.918020, 0.058907, 1.492341
1.699461, -0.157979, 0.715143
2.179060, 0.105940, 1.280184
1.869126, 0.240842, 1.392972
0.578790, -0.064300, 1.178626
0.589377, -0.068120, 1.181880
0.385893, 0.029798, 0.947953
0.357474, 0.062898, 1.017213
0.791475, 0.109932, 1.682196
2.070560, -0.339203, 1.259753
1.327214, -0.052082, 0.942272
2.192704, 0.114724, 1.467464
0.214499, -0.207581, 1.983683
1.936352, 0.138759, 1.460686
1.890087, 0.252175, 1.401474
1.860448, 0.279222, 1.423749
1.529221, 0.408843, -0.079816
1.258785, 0.051837, 0.760269
0.433350, -0.125003, 1.006553
0.586646, -0.137468, 1.189446
1.074573, 0.329241, 0.566051
1.266438, 0.181292, 0.344899
1.193058, -0.074714, 0.761704
1.494012, 0.200993, 0.458579
2.222867, -0.075843, 1.401258
1.718369, -0.217421, 1.213153
1.327068, -0.086550, 0.933385
1.208471, -0.080416, 0.782854
1.150617, -0.105007, 0.707853
2.311498, 0.525844, -0.626012
1.419930, -0.235468, 1.028023
2.628625, 0.662646, -0.596947
1.870849, 0.549912, -0.619509
1.721471, 0.350349, 1.455812
1.652453, 0.356454, 1.386374
1.325010, 0.116499, 0.989088
1.745080, 0.702197, 0.492193
1.394640, 0.616875, 0.690140
1.875494, -0.233027, 1.233793
1.223274, 0.169621, 0.872129
2.957138, -0.412679, 2.715044
1.891172, 0.002280, 1.639859
2.660917, -0.561705, 1.908197
2.184175, 0.107115, 1.360750
3.142330, -0.332279, 0.371972
2.471782, 0.296840, 1.063262
1.989216, -0.721693, 1.699679
1.659911, 0.244557, -0.483149
3.298073, 0.381288, -0.151712
1.986848, -0.027334, 0.841428
1.255275, 0.153330, 0.795692
1.710918, -0.219341, 0.981669
1.472821, -0.388794, 0.746157
1.574289, -0.359759, 1.090714
2.159617, -0.466954, 2.173867
2.830081, 0.361987, 0.818218
3.967066, 0.041484, -0.101807
1.880283, -0.068864, 1.642036
1.907094, -0.454823, 1.454598
1.612584, -0.130991, 0.702649
1.608589, -0.132452, 0.705195
1.920495, 0.144264, 1.437091
2.092780, -0.426586, 1.257350
1.541248, -0.129665, 0.777343
1.535350, -0.272360, 1.122660
1.386312, -0.327237, 0.861960
1.532245, -0.272941, 1.123615
1.558918, -0.191527, 0.777444
1.337296, -0.352210, 0.943746
1.286370, -0.249216, 0.736526
1.294867, -0.170665, 0.779298
2.058262, 0.583084, 0.075319
1.227445, -0.159484, 0.670669
1.419378, -0.235383, 0.907963
1.301461, -0.140621, 0.808353
1.394693, -0.222373, 0.966689
2.069759, -0.185649, 1.278485
1.292076, 0.129529, 0.947068
1.895910, 0.238573, 1.586924
1.909482, 0.264361, 1.615561
1.838592, 0.286475, 1.400192
2.119241, -0.220547, 1.237813
1.832452, 0.204224, 1.604648
1.831094, 0.338410, 1.461658
1.697800, 0.265522, 1.604028
0.628970, -0.191016, 2.413633
1.122421, -0.301650, 2.112831
0.636362, -0.257356, 2.412943
0.601217, -0.111319, 2.405151
1.382411, -0.153486, 2.464203
1.352870, -0.631155, 2.403589
1.522956, -0.101776, 2.355722
1.458815, -0.328998, 2.613318
1.252887, 0.054378, 0.763326
1.287761, 0.184723, 0.713714
1.338964, 0.193382, 0.715889
1.290552, 0.151473, 0.739987
1.231566, 0.168759, 0.890216
1.288809, -0.459927, 2.592074
1.144897, -0.293301, 2.130306
0.684398, -0.252423, 2.462419
1.299604, 0.151121, 0.748263
1.581095, 0.205352, 0.441502
1.608844, 0.558686, 0.488738
1.316470, -0.233721, 0.674503
1.282547, -0.125748, 0.775038
1.559430, 0.216063, 0.535278
1.600988, 0.242922, 0.509040
1.317112, -0.154662, 0.899841
1.303568, 0.139748, 0.760309
1.334006, -0.176332, 0.810896
1.330755, -0.160194, 0.869916
1.350967, 0.244913, 0.757341
1.396918, -0.199093, 0.995532
1.152532, -0.144972, 0.669264
1.001061, -0.170847, 1.712584
1.043022, -0.111046, 1.809866
0.260656, -0.217707, 2.031374
1.246376, -0.221684, 0.713221
1.232943, 0.196283, 0.872248
-0.074428, -0.219984, 1.935699
0.231006, 0.168353, 2.141098
1.371509, -0.178081, 0.876736
1.322342, -0.176335, 0.813361
3.907473, 0.322725, -0.054623
2.322476, 0.340721, 1.061524
3.547461, 0.804519, 0.331481
1.261030, 0.133932, 0.920187
1.954386, -0.315195, 1.242652
1.707296, 0.373827, 1.192838
2.044325, -0.309896, 1.333752
1.441492, -0.182451, 1.059134
1.362546, -0.207343, 0.945131
1.762427, 0.328805, -0.744000
1.787839, 0.537830, -0.489960
1.384432, -0.099117, 1.005009
1.547702, 0.742611, -0.734713
1.269729, 0.126547, 0.917311
1.257189, 0.055385, 0.761022
2.048707, 0.486514, -0.163541
1.363463, -0.228346, 0.917756
5.195110, 0.828511, -2.281247
1.891816, 0.499190, -0.116239
1.399476, 0.093009, 1.072341
1.347786, -0.189899, 0.935605
1.767514, 0.466570, -0.496366
1.324781, -0.024440, 0.947348
1.938167, -0.255238, 1.330556
1.785807, 0.547967, -0.502316
1.719414, 0.530596, -0.412902
1.362259, -0.226991, 0.859831
2.004690, -0.171198, 0.503085
2.206491, -0.281166, 0.441896
1.922838, -0.133990, 0.696641
2.066980, -0.172494, 0.552858
1.968849, -0.170840, 0.507789
1.954603, 0.069675, 1.472307
3.126377, -0.228041, -0.435750
1.902549, -0.433029, 1.388598
1.539212, 0.042161, 1.240124
1.315466, 0.145846, 0.689916
1.316716, -0.232548, 0.772251
1.265651, -0.147258, 0.753170
1.707618, 0.361908, -0.842220
1.700841, 0.359550, -0.831582
1.591695, 0.305318, 0.382288
1.614074, 0.519552, -0.438791
1.580633, 0.561065, -0.408836
2.192900, 0.626329, -0.199924
1.834885, 0.337938, 1.466745
1.373093, 0.045888, 0.640630
1.249499, -0.125091, 0.733535
1.366819, -0.178392, 0.877581
1.137264, -0.119400, 0.626840
1.978928, 0.165928, 1.447491
1.250749, -0.123811, 1.221459
1.598427, 0.689471, 0.474589
1.547605, 0.560646, 0.557294
1.234670, -0.159099, 0.662911
1.261138, -0.135271, 0.798757
1.129939, -0.118078, 0.654972
1.369383, 0.257065, 0.743883
1.244659, -0.124906, 0.736615
0.335014, 0.003633, 1.029390
0.394495, 0.031885, 0.940268
0.432426, 0.095830, 1.113841
1.688041, 0.685841, 0.453924
1.813003, 0.382876, -0.620944
2.421692, 0.337196, -0.134412
1.150091, -0.097766, 0.694770
1.323903, -0.150557, 0.837965
1.258513, -0.135278, 0.800441
1.149659, -0.096029, 0.682349
1.366762, -0.199314, 0.860051
1.518097, 0.220183, 0.448454
2.314577, 0.489680, -0.524442
1.210586, 0.378914, 0.701915
1.551711, 0.210057, 0.380268
1.736763, 0.554039, -0.384636
1.949406, 0.518009, -0.265173
1.862079, 0.259198, 1.412596
1.385453, 0.104380, 1.060694
1.214579, -0.088213, 0.633225
1.267517, -0.174690, 0.764684
1.342376, -0.201353, 0.844107
1.135494, -0.148820, 0.687568
1.215831, -0.109752, 0.776570
1.540437, 0.027416, 1.235407
1.439563, -0.206632, 1.046633
1.446950, -0.193694, 1.055110
1.803784, 0.267428, 1.409107
1.774317, 0.543975, -0.412935
1.312055, 0.062130, 0.702315
1.158300, -0.058494, 0.815633
1.327195, 0.149600, 1.000350
1.066747, -0.093835, 0.694457
1.412324, 0.211342, 0.461237
1.140001, 0.269718, 0.628112
1.209172, 0.158550, 0.875390
1.317875, -0.336092, 2.070021
1.507569, -0.359604, 2.667038
1.994653, 0.447510, -0.281657
2.065118, 0.437061, -1.166682
1.279515, -0.162194, 0.883576
2.103280, 0.173889, 1.954062
2.189733, 0.116604, 1.357197
1.875133, 0.190621, 1.493704
2.154742, 0.256126, 1.223132
1.948005, 0.312047, 1.033098
3.897427, 0.760818, -0.133475
1.200690, 0.197372, 0.644904
1.537181, 0.206442, 1.184033
1.160692, 0.256230, 0.612469
1.230712, 0.028434, 0.833623
1.281707, 0.125114, 0.932976
2.376543, 0.517039, -0.596440
1.273787, 0.122950, 0.921221
2.261606, -0.074224, 1.409091
1.982635, 0.222971, 1.756885
1.723622, 0.434795, -0.121674
1.983433, 0.444727, -0.273107
2.043623, 0.587147, -0.548975
1.360026, -0.219982, 0.966558
1.925849, 0.409942, -0.206150
1.830730, 0.285002, 0.319115
1.586988, 0.769384, 0.513499
1.988511, 0.539381, -0.448209
1.133844, -0.113859, 0.633511
1.769524, -0.321029, 0.932796
1.730805, -0.189991, 0.932476
1.917918, -0.248848, 0.784877
1.986840, -0.386708, 1.323730
1.915548, -0.266092, 1.422559
1.977822, -0.414031, 1.312422
2.058247, -0.264855, 0.311164
1.387838, -0.249514, 0.906355
1.407471, -0.340800, 0.823441
0.247742, -0.210022, 1.961137
1.030189, -0.228700, 1.964777
1.868384, 0.585278, -0.588987
1.209137, -0.112187, 0.775406
1.278792, 0.203546, 0.665058
1.908527, -0.065045, 0.947993
2.968307, 0.651390, 0.332368
1.833935, 0.097380, 1.032961
1.969130, -0.214686, 1.380092
1.984200, -0.103679, 1.551388
3.836397, 0.741142, -0.094134
2.042433, 0.278609, 1.257586
2.001807, 0.359585, 1.125325
1.905228, 0.050174, 1.555510
1.255589, 0.163307, 0.875429
0.647043, -0.848379, 2.548834
0.671693, -0.671410, 2.642736
0.372678, -0.763196, 2.332104
0.455790, 0.156857, 2.099299
1.176482, -0.226177, 2.119473
1.270333, -0.244565, 2.038924
0.595697, -0.354688, 2.681827
2.689582, -0.308123, 1.794457
2.147876, 0.315646, 1.259170
0.538970, -0.160101, 1.139428
0.583175, -0.135726, 1.209342
1.786770, 0.521445, -0.431149
1.837118, 0.564331, -0.649050
1.768357, 0.363317, -0.453425
1.745197, 0.325244, 1.393862
2.148664, 0.308695, 0.984595
2.027228, -0.250264, 1.622453
1.854550, 0.113487, 1.013501
1.957567, -0.211472, 1.384365
2.260749, 0.239818, 0.761402
0.994514, -0.700952, 2.223844
0.318840, 0.033749, 2.227085
1.138639, -0.228226, 1.899029
1.048540, -0.225738, 1.912471
1.298090, -0.312482, 2.072402
1.880907, -0.630059, 2.433050
1.227991, -0.207000, 2.388049
0.790954, -0.298537, 2.813512
2.298236, 0.017038, 1.976100
1.910329, 0.265680, 1.079851
1.997694, 0.061219, 1.455657
1.896947, 0.237559, 1.033798
2.457313, 0.400339, 0.603463
1.672741, -0.372402, 2.543452
0.589425, -0.156733, 2.306953
0.186655, -0.240674, 2.086124
0.611709, -0.288340, 2.361576
0.307858, 0.033294, 2.120517
2.227338, -0.589714, 1.078802
1.808589, 0.405213, -0.660685
1.926730, 0.233133, 1.437112
1.344421, 0.218231, 0.710923
1.129276, -0.048431, 0.606233
1.590501, 0.570400, -0.417007
1.715365, -0.291963, 0.895264
1.317985, -0.254623, 0.763877
1.318684, 0.171185, 0.727468
1.216047, 0.048914, 0.821663
3.452439, 1.640440, 1.308762
1.219944, 0.245510, 0.860094
1.501264, 0.036760, 1.223428
1.556954, -0.228109, 1.023426
1.647379, -0.176726, 0.692941
2.033205, -0.119104, 1.275262
1.902115, 0.062254, 1.653254
2.095929, -0.270766, 1.248572
2.028418, -0.126065, 1.262244
1.318129, -0.157664, 0.779122
1.154474, 0.245785, 0.628627
1.202676, 0.196909, 0.647739
2.228552, -0.109370, 1.397231
1.359221, 0.103788, 1.043502
1.403345, 0.198220, 1.102632
1.322183, -0.060818, 0.933568
1.147906, -0.097423, 0.695779
1.870536, 0.470398, -0.686656
1.144820, 0.238698, 0.629216
1.113707, -0.133956, 1.885930
0.593224, -0.357286, 2.708092
0.462343, -0.027318, 2.230741
0.142635, -0.153780, 1.942967
1.068938, -0.186532, 1.818012
1.389725, 0.227768, 0.692609
1.220705, 0.179728, 0.872957
1.213367, -0.113495, 0.779561
1.597450, 0.313935, 0.449599
3.671112, -0.316763, -0.329210
1.381248, -0.319538, 0.814431
1.261265, -0.132042, 0.751237
2.238339, -0.162459, 1.174108
1.921545, 0.127811, 1.487585
3.223260, -0.462430, 0.371040
0.523419, 0.103870, 1.141173
1.731261, -0.556827, 2.581408
1.778439, -0.138741, 2.251357
0.045021, -0.354118, 1.565047
2.666424, -0.312878, 1.836219
2.385382, 0.383140, 1.030176
1.930178, 0.158183, 1.533253
2.168419, 0.120922, 1.445175
1.866698, 0.181713, 1.493443
1.234062, 0.168060, 0.882117
1.226644, 0.189341, 0.890817
1.234698, 0.152235, 0.885033
1.946853, 0.225599, 1.529855
3.051690, 0.528481, 0.349498
1.325114, -0.250352, 2.105317
1.912894, -0.616077, 2.415144
2.093361, -0.329363, 1.264702
1.968284, 0.251628, 1.641818
1.990407, -0.268846, 1.269186
1.288170, 0.129469, 0.911519
2.303459, 0.484022, -0.520457
1.724273, 0.542912, -0.453639
2.389327, 0.768818, -0.974927
1.296273, 0.129512, 0.953086
1.583077, 0.252757, 0.321351
1.890716, 0.413521, -0.681465
2.194870, 0.561867, -0.308474
1.651200, 0.680909, 0.412161
1.147686, -0.176125, 0.671664
1.579957, 0.483097, -0.379792
1.514747, 0.657255, -0.475041
1.271854, -0.130563, 0.784275
1.814800, 0.409625, 0.433541
1.167989, -0.157614, 0.631297
1.772785, 0.702105, -0.612093
1.602643, 0.231866, 0.471772
1.420644, -0.264385, 0.977897
1.334652, -0.049739, 1.669161
1.612032, -0.146435, 2.285451
1.927358, 0.144133, 1.430140
1.331999, 0.140444, 0.995416
1.397237, 0.079187, 1.072389
0.443702, 0.058621, 1.043873
0.498779, 0.072874, 1.225418
0.357225, -0.062573, 0.981473
0.435869, -0.046950, 1.071270
0.519756, -0.009096, 1.189491
0.439258, -0.076857, 1.030955
0.493296, -0.068698, 1.231819
0.541275, -0.158077, 1.134735
0.593778, 0.130511, 1.251500
1.498886, 0.237584, 0.526230
1.396292, 0.113940, 1.056509
1.228790, 0.029805, 0.835406
1.830576, 0.273062, 1.482985
2.157447, 0.244032, 1.354816
3.211684, -0.520972, 0.379544
1.539827, -0.217167, 1.036607
1.821531, -0.192000, 0.708057
1.539640, -0.217183, 1.036399
1.611488, -0.264648, 0.894138
2.567323, -0.765217, 1.637073
0.506478, 0.030554, 2.257344
1.164782, -0.092012, 0.675782
1.145143, 0.220322, 0.628509
1.117298, 0.282743, 0.616074
1.872186, 0.618595, -0.618585
1.295788, 0.186580, 0.699777
1.113320, -0.107545, 0.732902
2.106123, 0.597570, -0.610883
2.257629, 0.652150, -0.708433
2.247515, -0.631286, 1.177918
1.676841, -0.332073, 0.953653
1.697401, -0.333612, 0.954861
1.613724, 0.535953, 0.598869
1.971968, 0.494576, 0.348773
1.397549, 0.084391, 1.070381
1.186123, 0.159583, 0.642286
2.042420, 0.598601, -0.422669
1.321284, -0.042351, 0.942901
1.418909, 0.424735, 0.757225
1.308141, -0.154697, 0.801168
2.430060, 0.680982, -0.323196
2.228142, 0.197405, -2.251322
2.197343, 0.676017, -0.744011
2.144571, 0.650185, -0.677085
3.121432, 0.925351, -0.670810
1.935834, 0.151936, 1.433346
1.001294, -0.226360, 1.760462
1.123964, -0.611745, 2.469273
1.319268, -0.331264, 2.093161
1.704133, -0.553209, 3.551303
1.207266, -0.251780, 2.059645
1.174445, -0.301259, 2.139349
1.259366, -0.122705, 0.726641
1.276423, -0.130300, 0.741186
1.151250, -0.096029, 0.691302
2.043569, 0.439280, -0.012747
1.435389, 0.326117, 0.582509
1.795339, -0.288850, 0.890346
2.448833, -0.204733, 0.927347
1.953149, 0.011951, 1.505920
2.235641, 0.402106, 0.873941
2.888268, 0.432409, 0.307130
2.008373, 0.045817, 1.448785
1.999599, 0.044616, 1.448864
1.874651, 0.200425, 1.474189
2.084302, -0.061528, 1.699104
1.903127, 0.156139, 1.476306
1.320477, 0.182248, 0.756165
1.232459, 0.152356, 0.744020
1.339875, 0.249405, 0.703249
1.457079, 0.277005, 0.660551
3.035702, 0.714428, -0.663318
1.773577, 0.549538, -0.352096
2.002486, 0.450421, -0.289201
1.318656, 0.162805, 0.905213
1.386021, 0.104948, 1.055341
1.273422, -0.131463, 0.730341
1.402320, -0.172491, 0.894289
1.271992, -0.104831, 0.702724
2.385851, -0.497994, 0.990342
2.004975, -0.347391, 1.277452
1.603043, 0.620758, 0.460991
1.224379, 0.195142, 0.891875
1.264366, -0.157044, 0.766139
1.222895, 0.153272, 0.865240
1.385224, 0.341878, 0.717208
1.820082, 0.268217, 1.410689
1.398799, 0.112531, 1.060216
-0.126121, -0.012522, 1.796598
0.030640, -0.061271, 1.926300
0.177492, -0.332904, 1.475614
2.161023, 0.183103, 1.864790
1.914079, -0.071479, 2.233614
2.259683, -0.116073, 1.839144
1.914223, 0.026443, 1.633297
1.919447, -0.277689, 2.685467
1.660481, -0.062443, 2.156506
2.692414, -0.299367, 2.059830
1.124240, -0.225225, 1.919460
0.774289, -0.086148, 1.445771
1.867497, -0.628027, 3.269811
3.049564, -0.452768, 2.652683
1.781154, -0.582238, 2.537106
0.579590, -0.099790, 1.211022
-0.089656, -0.223631, 1.934227
0.691493, -0.458180, 2.689750
2.041413, -0.061538, 2.539526
0.581664, -0.005683, 1.233261
0.576787, -0.097675, 1.210685
0.556287, -0.126533, 1.233785
0.496183, 0.069344, 1.681477
1.652811, -0.121570, 2.298649
1.694445, 0.010791, 2.188932
2.725141, -0.352215, 2.170607
0.561677, -0.129407, 1.228377
1.693172, -0.091307, 2.219351
1.094944, -0.595897, 2.417169
1.611168, -0.178830, 2.306123
1.629965, -0.537490, 3.535218
2.252454, 0.083231, 2.019515
1.320434, -0.574445, 2.459034
1.385254, -0.616060, 2.500778
1.548558, -0.229513, 2.748480
1.285097, -0.298170, 2.035916
1.613034, -0.178686, 2.317647
1.460592, -0.233694, 2.462009
1.294229, -0.110056, 2.072150
1.253615, -0.129757, 2.020959
2.164724, -0.567912, 2.204882
2.063308, 0.103942, 2.220205
1.898012, -0.052471, 2.219024
1.506285, -0.070457, 2.279052
1.702383, -0.078707, 2.232225
1.698316, 0.016209, 2.200423
2.863974, -0.315566, 2.184460
2.243387, -0.103706, 1.983796
0.699010, 0.016816, 2.565835
1.445515, -0.238094, 2.500960
1.276033, -0.337411, 2.053767
1.340585, -0.293406, 2.160505
1.323341, -0.501606, 2.669705
1.383539, -0.139282, 2.513873
1.732705, -0.548472, 3.508980
2.151447, 0.103979, 1.811709
1.508408, -0.071258, 2.265069
2.120804, -0.515855, 2.282085
0.055471, -0.242639, 2.144417
3.030771, -0.156479, 2.773196
1.905630, -0.480783, 2.455345
2.250112, -0.075256, 2.024457
2.065955, -0.485734, 2.333328
1.987015, -0.180210, 2.280079
1.560410, -0.059667, 2.042588
1.666579, -0.073330, 1.943704
2.004949, 0.068223, 2.275045
1.211506, -0.442736, 2.511023
2.389490, 0.003819, 2.431678
1.322550, -0.328715, 2.075868
1.337596, -0.294681, 2.110420
1.765697, -0.141497, 2.207262
1.459807, -0.232786, 2.470343
1.261444, -0.313253, 2.035233
1.585494, -0.377906, 2.959771
1.513953, -0.199946, 2.258432
1.459354, -0.232809, 2.464418
0.194718, -0.351972, 2.003887
1.406633, -0.243057, 2.587749
1.267091, -0.598065, 2.436166
1.351541, 0.004500, 2.203567
1.244266, -0.249489, 2.024951
2.276533, 0.045907, 2.089037
1.424041, -0.153260, 2.419710
1.524929, -0.103304, 2.050815
1.387072, -0.070255, 2.420995
0.601017, 0.132921, 2.065688
0.435579, -0.042202, 1.057933
0.505031, 0.030130, 2.262715
-0.162570, -0.006452, 1.805712
1.318574, -0.515373, 2.708462
1.339106, -0.668168, 2.372380
0.668692, -0.406648, 2.525598
1.179081, -0.248732, 2.128808
1.029418, -0.229643, 1.968742
1.262093, -0.316119, 2.036935
2.138433, -0.308488, 2.396692
0.569402, -0.132149, 1.162165
1.653244, -0.064112, 2.144129
1.735548, -0.144850, 2.220842
1.121694, -0.629284, 2.539366
1.437435, -0.402120, 2.718378
0.522343, -0.132677, 2.278786
1.257667, -0.314580, 2.035635
1.281304, -0.111624, 2.100809
1.321384, -0.222765, 2.123171
1.464829, -0.031897, 2.311179
1.558691, -0.057313, 2.043129
1.373530, -0.295870, 2.249648
0.042687, -0.354160, 1.564721
1.918190, -0.088912, 2.692369
2.417304, -0.042160, 2.208175
1.873675, -0.064856, 2.198384
1.720864, -0.052756, 2.104801
2.017727, 0.144592, 2.146763
1.339808, -0.015456, 1.657891
1.328336, -0.105410, 1.651087
-2.056637, -0.166893, 4.514253
0.482896, 0.191507, 1.179673
0.336184, -0.085094, 0.931236
2.045274, 0.067556, 1.311081
1.598318, -0.687562, 2.656820
1.473451, -0.077939, 2.314859
2.091995, -0.563824, 2.275126
0.489335, 0.028968, 1.114014
0.377930, 0.055228, 1.034413
0.345354, 0.024996, 1.037055
0.455749, 0.026334, 1.122058
1.432051, 0.015819, 1.669231
0.593249, -0.811525, 2.447665
0.483582, -0.238224, 2.247352
1.412694, -0.321356, 2.540637
1.089172, -0.730431, 2.553864
1.490539, -0.160216, 2.534272
1.453856, -0.268989, 2.464746
1.314750, -0.158927, 2.164819
1.321230, -0.578119, 2.465212
1.448460, -0.449864, 2.772438
1.430239, -0.051746, 1.794763
2.097219, -0.077325, 1.885688
1.368256, -0.121882, 1.694786
1.359262, -0.121104, 1.657002
1.303934, -0.143443, 1.685999
1.345650, -0.102253, 1.645424
0.580421, -0.097086, 2.398840
1.388053, -0.057629, 1.614744
1.327483, -0.141288, 1.701056
1.951473, -0.099210, 2.257534
2.113425, -0.547824, 2.328274
1.346366, -0.281827, 2.108116
1.291887, -0.287281, 2.041475
1.292274, -0.287983, 2.040383
1.526296, -0.102734, 2.056359
1.526979, -0.098858, 2.066891
0.461611, 0.038305, 1.068659
1.713391, -0.081438, 2.243538
1.613442, -0.144082, 2.285976
1.770431, -0.120581, 2.194050
3.050043, -0.378048, 2.588421
1.557260, -0.079517, 2.294525
1.407386, -0.147327, 2.477989
0.757378, 0.065568, 1.868810
0.951097, 0.033430, 1.691398
-0.073176, -0.217102, 1.942020
0.510834, 0.054462, 1.141343
1.888180, 0.182672, 1.581005
0.562529, 0.121271, 1.121323
0.374933, -0.244537, 2.083847
0.896972, 0.091437, 1.833008
0.478536, 0.032643, 1.118718
1.786339, -0.755057, 2.490219
2.132882, -0.451425, 2.540045
2.285248, 0.122899, 2.154356
2.415520, -0.460951, 2.922685
0.753982, -0.554352, 2.751528
0.481911, -0.131881, 2.225666
0.508311, 0.030552, 2.259096
1.283658, -0.300277, 2.021593
0.681935, -0.318808, 2.465558
1.257539, -0.318277, 2.044357
1.451443, -0.522111, 2.920390
1.202366, -0.444556, 2.539149
1.509611, -0.200162, 2.564181
1.000543, -0.061871, 2.339332
1.393975, 0.031785, 2.392287
1.293729, -0.172707, 2.050831
1.321151, -0.223425, 2.116876
0.559907, -0.184714, 1.153527
0.771151, 0.084248, 1.509145
0.453097, 0.030928, 1.112344
1.591041, -0.158309, 2.246500
0.449806, 0.042688, 1.082507
0.419160, 0.042098, 1.023018
3.116425, -0.323968, 2.295984
0.520143, -0.067594, 1.164857
0.447708, -0.001137, 1.015778
0.470624, 0.036152, 1.129844
0.550237, 0.079758, 1.224548
0.475701, -0.054966, 1.105332
3.142831, -0.252425, 2.419625
1.359775, -0.166213, 2.487547
1.623509, -0.636589, 3.590212
1.430845, -0.499644, 2.716584
3.046339, -0.367646, 2.585783
0.453227, 0.027340, 1.117260
1.964011, -0.062763, 2.242155
3.129750, -0.302961, 2.210154
1.314729, -0.302060, 2.060256
1.324064, -0.251744, 2.104499
1.350456, -0.324348, 2.127754
1.384498, -0.079943, 2.370666
1.294069, -0.110026, 2.072536
1.293026, -0.171474, 2.050874
2.269470, -0.182714, 1.826877
2.558144, -0.236825, 2.722496
2.525091, -0.471169, 1.947852
2.225199, 0.118607, 1.366343
1.770429, 0.208562, 1.863420
1.275870, -0.092671, 1.713270
1.907753, -0.287117, 1.489082
1.860786, 0.268558, 1.574310
1.538015, -0.098345, 2.055937
1.788201, 0.062877, 2.038248
0.527842, -0.330649, 2.636415
0.532606, -0.000060, 1.201340
0.521856, -0.144032, 1.125650
0.529518, 0.015193, 1.150724
0.520325, 0.107632, 1.148178
0.594755, 0.128547, 1.243922
1.381180, -0.596213, 2.507091
0.696299, 0.009586, 2.581618
0.534510, 0.079535, 1.159674
2.056082, 0.100241, 2.216095
1.727696, 0.027939, 2.170463
2.242677, -0.095543, 1.954785
1.934441, 0.050842, 1.605373
0.770785, -0.030288, 2.701657
1.857213, 0.072799, 2.120644
0.785494, -0.321227, 2.574268
0.694073, -0.201371, 2.425515
0.792970, -0.232935, 2.591061
1.591609, -0.249710, 2.758445
1.145504, -0.290314, 2.137950
1.386480, -0.080533, 2.372858
0.399794, 0.027781, 0.938529
0.610701, 0.066492, 1.750105
0.592340, 0.051659, 1.226064
1.772585, 0.153921, 1.966027
0.373644, -0.096232, 0.941332
0.696632, -0.005299, 1.401204
0.536869, -0.155931, 1.833148
1.613810, -0.146685, 2.292128
1.756432, 0.149415, 1.944614
1.561981, -0.058908, 2.034550
2.324277, 0.020434, 2.006829
2.315152, -0.158669, 1.757354
1.860543, -0.065099, 2.170277
1.982230, 0.072861, 2.268002
0.440188, 0.023632, 1.081740
0.583247, -0.163958, 1.171782
0.503914, -0.064872, 1.107483
0.542494, -0.084955, 1.167355
0.456950, -0.213818, 2.217449
1.337526, -0.296434, 2.105995
1.364176, -0.181294, 2.514308
1.385474, -0.607516, 2.533021
1.390973, -0.330433, 2.483400
0.786780, -0.711427, 2.395221
1.318224, -0.509809, 2.655468
0.470996, -0.190995, 2.228796
1.420172, -0.720579, 2.467357
1.295363, -0.292097, 2.051814
1.629486, -0.150212, 2.285962
1.367590, -0.291313, 2.219440
1.550944, -0.083916, 2.286316
1.250332, -0.186886, 2.046212
1.298379, -0.263629, 2.051320
1.859615, 0.180823, 1.857850
2.886072, -0.312215, 2.174716
0.387081, 0.056319, 1.038189
0.320685, 0.005285, 1.037431
0.581481, 0.171972, 1.265592
0.436388, -0.032139, 1.093995
0.521803, 0.104712, 1.137534
0.369940, -0.000535, 0.918437
0.383503, 0.018694, 0.940239
2.255356, 0.027464, 1.898185
2.087159, 0.098960, 1.801728
1.583186, -0.132537, 2.175062
1.592960, -0.081686, 2.260627
1.909738, 0.024627, 1.628870
1.898955, -0.055673, 2.222117
2.083467, -0.108288, 1.256335
1.843759, 0.354002, 1.612103
1.828706, 0.155742, 2.017798
0.583642, -0.169605, 1.159571
1.632446, -0.206046, 2.763442
2.110054, -0.441606, 2.303657
1.570406, -0.260125, 2.639299
1.644087, -0.062070, 2.198384
1.639596, -0.067151, 2.189156
2.342098, -0.238819, 1.896890
1.979908, 0.078369, 1.610060
0.443240, 0.092381, 1.102431
0.629141, 0.099167, 1.198985
0.597682, -0.287762, 2.402406
0.521099, 0.105485, 1.144719
1.279009, -0.291895, 2.061616
1.299514, -0.126049, 1.659576
2.322813, -0.378214, 2.140536
1.471996, -0.080891, 2.306568
0.457031, 0.043785, 1.065090
0.180044, -0.022277, 1.144131
1.633513, 0.131054, 1.926723
0.361717, -0.086221, 0.933829
0.373338, 0.057080, 1.007944
0.414896, 0.086149, 1.011666
0.328375, 0.084157, 0.954397
1.582807, -0.167986, 2.510686
1.457711, -0.233410, 2.463420
1.294752, -0.292498, 2.051019
0.464666, -0.114700, 2.203026
1.494367, -0.484544, 2.808290
1.338688, -0.282945, 2.210512
1.417073, -0.196263, 2.583154
1.448645, -0.325055, 2.622842
0.816683, -0.123936, 1.757417
1.116148, -0.296963, 2.130320
0.162678, -0.205234, 2.036403
1.459448, -0.266023, 2.476800
1.480934, -0.121059, 2.479809
2.200702, -0.273926, 1.153438
2.153203, 0.196144, 1.218864
1.737516, 0.295678, 1.334458
1.878675, 0.252708, 1.469662
2.091290, 0.299284, 1.242153
1.537162, 0.040227, 1.240475
1.950333, -0.357061, 1.391363
2.493762, 0.196263, 1.119291
2.226582, 0.096216, 1.913829
2.053766, -0.101006, 1.584934
2.199418, 0.138896, 1.342234
1.766619, 0.285380, 1.321260
2.187881, 0.261619, 1.348204
1.910784, 0.226113, 1.569168
1.983030, 0.395346, 1.310721
1.265620, -0.600384, 2.439147
1.327487, -0.264033, 2.104037
1.258700, -0.335892, 2.063971
1.811871, -0.616717, 3.378038
1.668923, -0.515023, 2.837398
1.095990, -0.231922, 1.811512
3.393071, 0.395207, 0.462981
3.705919, 0.123841, -0.268230
2.046608, 0.254508, 1.277991
2.195146, 0.277257, 1.334961
0.479786, 0.057715, 1.092042
0.505145, -0.120559, 1.068576
1.879367, 0.090051, 1.656379
2.205106, 0.094353, 1.331133
4.859340, 0.349202, -0.038464
1.391291, 0.035884, 1.048154
1.464649, 0.079517, 1.155478
1.982172, -0.105333, 1.552261
2.018618, -0.276622, 1.461833
2.168673, 0.048389, 1.776418
1.975714, 0.387317, 1.314018
2.037372, 0.106655, 1.281017
2.325655, 0.257339, 1.213197
2.300568, 0.403812, 0.779895
1.157704, -0.474765, 2.595046
1.320702, -0.333987, 2.666322
0.999738, -0.231263, 1.948412
0.542769, -0.237996, 2.549297
0.455774, -0.120541, 2.193165
0.521695, -0.133849, 2.277972
0.395953, -0.109405, 2.154436
1.257562, -0.318037, 2.041275
1.340586, -0.335808, 2.107445
0.329337, 0.005123, 0.929327
0.360701, -0.091655, 0.932604
0.455905, -0.056795, 1.096179
0.443368, 0.146264, 1.136427
0.520194, -0.039524, 1.103761
0.559755, 0.129915, 1.123128
2.214000, 0.375028, 0.852242
0.504090, -0.242985, 2.246917
1.321898, -0.329634, 2.074680
0.828141, -0.390458, 2.336878
1.082856, -0.641665, 2.560541
2.519347, -0.203648, 0.905934
1.929927, 0.232896, 1.775809
2.451650, -0.118484, 0.974490
2.312652, 0.162628, 1.264599
1.871363, 0.248767, 1.474170
1.845435, 0.070376, 1.638549
0.982631, -0.120966, 1.717084
1.559684, 0.125469, 1.287997
1.925731, -0.365768, 1.430673
1.663026, 0.240896, 1.269958
3.831342, 0.178510, 0.057042
2.179581, 0.137754, 2.065486
2.944074, -0.344851, 2.199147
2.010245, 0.133991, 2.073915
0.599003, -0.542294, 2.631456
0.533226, -0.557169, 2.701208
1.114283, -0.293014, 2.126561
0.017390, -0.584213, 1.977876
1.994943, 0.316549, 1.295336
1.901338, -0.163734, 1.476979
2.447105, 0.285053, 1.071794
2.092970, -0.330078, 1.349887
1.981626, 0.412851, 1.202967
1.746013, 0.263209, 1.295185
1.650853, -0.121162, 2.299327
0.528498, 0.068392, 1.130573
0.379965, 0.073864, 1.004782
0.371311, 0.086732, 0.965222
0.584443, -0.067591, 1.183939
2.396642, -0.568812, 1.601418
3.121499, -0.302180, 2.206422
0.539572, 0.053433, 1.226200
0.520620, -0.007271, 1.184715
0.432106, 0.030038, 1.093023
0.595488, 0.127744, 1.242948
0.555510, -0.163394, 1.158744
0.427707, 0.011489, 1.124086
2.215476, 0.077017, 1.344707
2.526487, -0.102682, 0.955177
1.919497, -0.202058, 1.546262
1.909185, -0.193267, 1.440637
2.396325, 0.446333, 0.936391
1.737335, 0.262126, 1.256003
3.583640, 0.433352, 0.270309
1.942510, -0.299595, 1.511466
1.937701, -0.091813, 1.454700
2.287616, 0.103189, 0.461077
2.422521, 0.331688, 0.611751
3.012198, 0.317999, 0.019083
3.282539, 0.296008, -0.173697
1.891599, 0.214460, 1.432696
1.952221, -0.086574, 1.453211
2.129614, 0.105726, 0.450107
1.479629, -0.127298, 2.472616
1.170702, -0.465356, 2.527781
1.575198, -0.379097, 2.922564
0.520340, -0.038667, 1.105960
0.572755, -0.482486, 2.622319
1.167281, -0.577308, 2.600061
0.220502, -0.206972, 1.977000
0.367993, -0.264579, 2.120744
0.602719, -0.543239, 2.616433
1.290951, -0.386219, 2.640276
0.623732, -0.285456, 2.343134
0.694452, -0.572041, 2.810824
1.990970, 0.275708, 1.122581
1.460436, 0.097251, 1.117851
2.496147, -0.097073, 0.972852
1.446225, 0.067183, 1.145616
2.357548, 0.272073, 1.053433
2.957127, 0.177073, 0.838476
3.192934, 0.069132, 0.461844
2.445407, 0.268190, 1.042861
2.014282, 0.218550, 1.851078
2.051422, 0.015843, 1.729751
0.428881, -0.043296, 2.229410
1.082678, -0.658767, 2.543697
0.201745, -0.233340, 2.079960
1.134857, -0.346349, 2.696965
0.757064, -0.459863, 2.988249
1.725008, -0.050164, 2.113467
0.480174, -0.151205, 2.238077
2.263365, -0.281629, 1.288628
1.023503, -0.244512, 1.983007
1.144308, -0.243931, 1.850980
1.116202, -0.345417, 2.678167
0.448337, -0.008534, 1.028369
0.520036, -0.200322, 1.131715
0.538945, -0.160055, 1.138518
0.512246, -0.035015, 1.103523
1.321027, -0.578979, 2.464624
2.600333, -0.630321, 1.874046
1.895065, 0.139866, 1.445904
0.494963, -0.227686, 1.106421
2.818801, 0.056396, -2.182952
1.426713, 0.291258, 0.182294
1.258492, -0.051003, 0.601646
2.174598, -0.426791, 1.063581
1.979553, -0.346893, 1.242411
2.635940, -0.434904, 0.742520
1.244192, -0.108156, 0.731075
2.117516, -0.235741, 0.725720
2.042290, -0.258184, 0.668304
3.535432, 0.120015, 0.306011
1.898270, -0.112698, 1.507393
2.573272, -0.215959, 0.905901
2.060694, -0.384875, 1.264403
1.534710, 0.242649, 0.391109
1.346757, 0.228851, 0.714350
1.305834, 0.219127, 0.682534
1.252541, 0.283497, 0.843372
1.460016, 0.064591, 1.157321
1.322880, -0.022600, 0.947274
1.079187, -0.619131, 2.421546
0.428158, -0.124115, 1.010736
0.394428, 0.028148, 0.946334
0.447264, -0.035550, 1.083862
1.222502, 0.182836, 0.870018
1.124334, -0.084806, 0.640785
1.798789, 0.330906, -0.677484
1.817720, 0.558618, -0.355933
2.032938, 0.337414, 0.064273
2.392704, 0.538301, -0.373109
2.012469, 0.332132, 0.079182
1.580501, 0.601460, -0.467930
1.832437, 0.254037, 1.462126
1.341908, -0.191758, 0.936602
1.416868, -0.233955, 1.004751
2.006244, -0.010440, 1.323145
3.468150, -0.008730, 0.182430
3.747159, 0.108985, -0.188645
3.752385, 0.148887, -0.286447
2.395538, 0.349602, 1.039449
2.499184, -0.228203, 0.928751
2.426687, 0.366718, 0.650175
3.577091, 0.873577, 0.348926
1.184841, 0.164594, 0.631332
1.286075, -0.305348, 0.620748
2.020482, -0.075504, 1.426028
2.014538, -0.190637, 0.737027
3.298686, -0.318820, 0.167495
2.086883, -0.527281, 1.248474
0.376876, 0.055119, 0.958724
2.126010, -0.370283, 1.238216
0.675548, -0.158925, 2.463109
1.799758, -0.546178, 3.366430
1.955582, 0.331099, 1.071820
2.120384, -0.064403, 1.289878
2.177230, -0.051381, 1.277521
1.034610, -0.234880, 1.959744
1.323897, -0.250228, 2.107240
1.322024, -0.580140, 2.483047
1.460338, -0.231352, 2.473493
1.090413, -0.200802, 1.964351
3.139962, 0.454104, 0.610838
3.130005, 0.470576, 0.544775
2.035844, 0.238414, 1.280032
3.029340, 0.414685, 0.658251
2.048846, 0.389094, 1.129471
1.783215, 0.417438, -0.678051
1.352277, 0.184574, 0.738605
1.926183, -0.361582, 1.467701
2.752312, -0.427958, 0.647486
2.142895, 0.233078, 1.360950
2.133478, -0.529132, 1.230773
2.126768, 0.338049, 1.201596
1.957692, 0.104441, 1.522854
1.517328, 0.118350, 1.132755
1.889017, 0.177177, 1.511733
0.965497, -0.205962, 1.691348
1.093753, -0.268322, 1.855656
1.079217, -0.215368, 1.797178
0.353583, 0.012407, 2.189740
0.197427, -0.214484, 2.092762
1.202581, -0.472456, 2.567908
0.211843, -0.077858, 2.106863
2.334523, 0.351907, 1.047081
1.730507, 0.253762, 1.260063
2.070050, 0.063538, 1.371605
2.418913, 0.376509, 1.056125
1.904556, 0.165822, 1.523388
1.384253, 0.104305, 1.058889
1.756288, -0.148477, 1.229675
1.452314, -0.180548, 1.067291
2.025619, 0.332247, 1.677282
2.094185, -0.268397, 1.405974
1.273769, 0.140434, 0.925087
1.528895, 0.251078, 1.164028
1.336682, 0.123703, 1.005059
1.381259, 0.090479, 1.054747
1.260164, 0.122758, 0.774867
1.233429, 0.171221, 0.887780
1.773216, 0.278208, 1.396239
0.447331, 0.034523, 1.116776
1.185329, -0.118578, 0.741457
1.398953, -0.326230, 2.578491
1.509061, -0.361495, 2.688169
1.308092, -0.352955, 2.149642
1.347322, -0.284688, 2.107176
1.355375, -0.294057, 2.371666
1.530169, 0.029689, 1.248899
2.427157, 0.162519, 0.294006
2.054395, -0.059623, 1.270238
2.767308, 0.499582, 0.387836
2.034801, -0.066013, 1.275623
1.539677, -0.123677, 1.195491
2.005844, -0.149020, 1.665842
1.964441, -0.184535, 1.559972
1.170650, 0.196758, 0.643968
1.288795, -0.171458, 0.748869
1.279110, -0.175638, 0.759165
1.689631, -0.130783, 0.735562
1.337616, -0.300597, 0.764138
1.416016, -0.233439, 1.004403
1.312093, -0.142897, 0.816802
2.005597, -0.216879, 0.773706
1.319170, -0.160718, 0.873635
2.080147, -0.596164, 1.302211
2.387541, -0.302944, 0.071908
1.920174, -0.622388, 1.265972
2.106843, 0.232965, 1.248627
1.355943, -0.041306, 0.634694
1.162073, -0.098463, 0.684688
1.224955, 0.159062, 0.864308
1.347412, -0.187131, 0.799540
0.218533, -0.424738, 1.989821
0.177373, -0.122139, 2.080714
0.132488, -0.355365, 2.140522
1.716965, 0.514486, -0.394426
1.281829, 0.183250, 0.680195
1.336426, 0.267739, 0.699144
1.694713, -0.271077, 1.004067
1.394153, 0.318115, 0.670580
1.627567, 0.257079, 0.497776
1.702568, 0.375020, 0.085579
1.381510, -0.224767, 0.970230
1.246241, -0.136035, 0.802777
1.288054, -0.012958, 0.640714
1.146550, 0.223534, 0.623861
1.140218, -0.107425, 0.703504
1.149161, -0.105733, 0.704433
1.250677, -0.118007, 0.747013
1.269840, -0.270376, 0.693630
1.904893, 0.176394, 1.467247
2.165005, 0.120178, 1.443466
1.632510, -0.179837, 1.204766
1.277007, -0.173635, 0.760093
1.237949, -0.109571, 0.692999
1.346708, -0.201605, 0.841906
1.106107, -0.182398, 0.707123
1.347476, -0.203734, 0.842562
1.239554, -0.217262, 0.706828
1.358334, -0.155522, 0.650400
1.356723, -0.245331, 0.829971
1.696025, 0.356030, -0.823401
1.694355, 0.432190, -0.061613
1.280526, -0.137881, 0.801353
1.285297, -0.297608, 2.035911
1.405640, -0.453726, 2.757256
1.874749, -0.772834, 2.494733
1.590847, -0.242960, 2.550913
1.986321, -0.286173, 1.475355
0.717990, -0.030300, 2.562724
1.153559, -0.543868, 2.639138
1.227030, 0.189846, 0.890697
1.226811, 0.158988, 0.861367
1.391566, -0.453559, 2.666223
1.338699, -0.724884, 2.378826
1.263569, 0.150801, 0.923316
1.339430, 0.228446, 1.030248
1.378146, 0.086292, 1.054421
1.538740, 0.031189, 1.236944
1.408965, 0.082565, 1.102992
1.323042, -0.046088, 0.944657
1.814175, 0.338222, 1.406601
1.889845, 0.032252, 1.588364
1.917613, -0.098882, 1.462051
2.064813, -0.265227, 1.264966
2.016786, -0.225999, 1.265273
1.539040, 0.041338, 1.239302
1.938531, -0.318094, 1.313357
1.288231, -0.343201, 2.070996
0.464310, -0.081434, 2.230730
1.342928, -0.602550, 2.422766
0.792770, -0.777552, 2.693213
1.359455, -0.762702, 2.400368
0.435639, -0.195590, 2.161516
0.505621, -0.220328, 2.249093
1.036975, -0.233419, 1.826115
1.710708, 0.198725, 1.184666
2.161048, 0.273879, 0.836299
2.653509, -0.086271, 0.328719
2.198776, 0.299537, 0.801168
1.854020, 0.260860, 1.078707
1.952942, -0.260846, 1.532829
1.977543, -0.104436, 1.549720
1.945244, -0.099651, 1.510412
1.965360, 0.431391, 1.166390
2.021771, 0.137154, 1.309665
2.147729, 0.486939, 1.074820
1.966787, 0.312093, 1.082613
2.499852, 0.475545, 0.904089
2.437670, -0.208218, 0.934863
2.126141, 0.192936, 1.292209
2.000399, -0.024348, 1.286829
1.205502, -0.825486, 2.468559
1.006694, -0.236332, 1.970091
1.095894, -0.263926, 2.709944
1.240409, -0.222846, 2.032202
0.589845, 0.050203, 1.283651
0.584140, -0.050757, 1.187674
1.322585, -0.045313, 0.945263
1.273428, 0.117282, 0.927056
2.092950, -0.237503, 1.366805
1.458339, -0.233409, 2.462364
1.447468, -0.110976, 2.387156
1.527275, -0.100315, 2.066447
2.433331, -0.068158, 2.158265
1.257341, -0.155103, 0.697823
1.381779, -0.279009, 0.848395
0.382774, -0.013657, 0.968956
0.433729, 0.010452, 1.114495
1.769315, -0.239329, 1.217958
1.897480, 0.051022, 1.524870
2.305963, -0.375276, 1.378723
1.387755, 0.012647, 1.043557
0.795715, -0.252203, 2.578203
2.425171, 0.402746, 0.954173
1.928590, -0.621211, 1.264713
1.909458, 0.057277, 1.520981
2.123140, -0.052312, 1.708816
2.240294, 0.494446, -0.029710
2.390566, 0.411763, -0.316803
2.133214, 0.451255, 0.043491
1.077467, 0.239745, 0.539740
2.239419, -0.530420, 1.084110
1.995104, 0.314217, 1.292997
1.388594, -0.230710, 0.829301
1.533478, -0.414104, 1.106033
1.366054, -0.248239, 0.863894
2.182284, 0.239965, 1.240603
1.545006, -0.349392, 1.121425
1.976500, -0.356704, 1.480739
1.621040, -0.145840, 0.701166
1.670549, -0.255211, 0.997371
1.813004, 0.060656, 1.282172
1.690461, -0.256946, 0.999446
2.044089, -0.059682, 1.278463
1.286533, 0.146617, 0.758996
1.142074, 0.250162, 0.637050
1.644440, 0.667339, 0.485595
1.816401, 0.468997, -0.598268
1.560693, 0.175298, 0.550333
1.143802, -0.121037, 0.633461
2.493509, 0.697381, -0.352612
1.682387, 0.309677, 0.213185
1.580909, 0.269291, 1.139386
1.278894, 0.127899, 0.927723
1.976914, 0.438775, -0.265978
1.390749, 0.035312, 1.048282
1.613124, 0.573568, 0.489578
1.382186, -0.189590, 0.919230
1.377735, 0.314689, 0.621226
1.531683, 0.256939, 0.484212
1.514914, 0.702007, -0.660368
1.444051, -0.205776, 0.891726
1.325722, -0.158688, 0.823024
1.955023, 0.486272, -0.235037
2.138762, 0.463971, 1.383033
1.615672, 0.667458, 0.480962
3.742527, 1.076521, -1.210535
1.858340, -0.137675, 1.299801
1.304989, 0.191987, 0.690951
1.316825, 0.153152, 0.694265
1.394489, 0.289822, 0.152952
2.505422, 0.177986, 0.570076
1.471050, 0.365536, 0.025493
1.399607, 0.355664, 0.019038
1.794140, 0.529195, -0.455983
1.819453, 0.385560, -0.642735
1.862150, 0.493921, -0.101549
2.154669, 0.604448, -0.168786
1.326723, 0.399607, -0.095073
1.812513, 0.552260, -0.608757
1.360275, 0.195444, 0.660740
2.729248, 0.046162, 0.275107
2.694530, 0.173687, 0.246155
2.380458, -0.213437, 0.974063
1.780793, 0.258770, 1.134483
1.869513, 0.210322, 1.061045
0.441044, -0.066571, 1.020217
0.477957, 0.059636, 1.095369
1.954109, -0.260955, 1.533477
2.038602, 0.119731, 0.887949
2.049400, 0.129259, 0.875272
2.325547, 0.277609, 0.699686
2.122260, -0.562452, 2.301498
1.297794, -0.262712, 2.063147
3.193848, 0.587455, 0.050557
2.422405, 0.078904, 0.526456
2.342113, -0.117319, 0.525421
1.124302, -0.230777, 1.867388
1.174813, -0.225859, 2.132858
0.518166, -0.336978, 2.365205
1.096492, -0.232376, 1.811206
0.588920, -0.210670, 2.341782
0.562816, -0.239396, 2.373003
0.395642, -0.110266, 2.158421
1.740052, 0.576287, -0.297712
1.970555, -0.215746, 1.379924
0.609919, -0.251566, 2.385119
1.628029, -0.619616, 3.516195
0.689780, -0.200281, 2.429611
0.891242, -0.528427, 2.695229
0.796678, -0.168773, 2.637723
1.497196, -0.128163, 2.519211
0.758710, -0.616151, 2.700875
1.345078, -0.331686, 2.125092
0.390563, -0.206778, 2.092291
1.096697, -0.232607, 1.810896
1.460114, -0.232267, 2.472186
1.426205, -0.406798, 2.706494
1.320773, -0.300575, 2.065855
2.421456, 0.376282, 0.632653
1.881081, 0.096234, 1.649964
2.113731, -0.318417, 1.241742
2.826651, 0.479792, 0.445485
1.949719, -0.260448, 1.533796
2.281439, 0.398244, 0.874145
2.126462, 0.093335, 1.810444
1.967757, -0.214009, 1.380167
1.400551, -0.632966, 2.493101
1.674527, -0.544114, 3.582590
0.629923, -0.178369, 2.391449
0.624418, -0.462052, 2.885487
0.790118, -0.166795, 2.648071
0.334244, 0.011932, 2.166260
1.404449, 0.215368, 1.107872
3.086541, 0.785829, -0.716849
1.646181, 0.479345, -0.159148
1.810295, 0.560725, -0.648095
1.125988, -0.140708, 0.625612
1.573665, 0.261707, 0.272816
1.261077, 0.143274, 0.905472
1.921007, 0.125495, 1.480619
1.263719, 0.123722, 0.905576
1.225776, -0.118828, 0.735344
1.283814, -0.186678, 0.467417
1.173541, 0.201036, 0.639323
1.259446, -0.119823, 0.746074
1.375505, -0.251182, 0.737684
1.246946, -0.067035, 0.612764
1.460628, 0.090385, 1.142610
1.203311, -0.115783, 0.716425
1.251955, -0.124018, 0.731979
1.252802, -0.166231, 0.761331
1.278827, -0.157386, 0.699595
1.326022, -0.055947, 0.943119
1.788115, 0.388370, 0.169451
1.258945, -0.123381, 0.730902
2.280987, 0.571688, -0.174929
1.333865, -0.176929, 0.916820
2.185133, 0.568510, -0.307443
2.549322, 0.381684, -0.421855
1.872073, 0.251058, 1.512230
1.694685, 0.517723, -0.403778
1.606144, 0.331544, 0.360418
1.645679, 0.540129, -0.409417
1.559788, 0.299236, 0.402052
1.242884, -0.127184, 0.739461
0.433675, 0.010317, 1.115354
0.518900, -0.022773, 1.102392
0.543028, -0.155477, 1.128809
0.674573, 0.174964, 1.738904
0.609571, 0.038039, 1.218318
1.766034, 0.594049, -0.471295
1.285672, 0.200312, 0.675173
1.253499, -0.109557, 0.715238
1.666815, 0.361064, 0.397568
1.206450, -0.001279, 0.515141
1.167231, 0.193444, 0.650619
1.527300, 0.347089, 0.035231
1.201846, 0.199735, 0.642020
0.333982, -0.048483, 1.549033
1.812202, 0.569551, -0.543573
1.770986, 0.320414, -0.725626
1.225914, -0.007218, 0.816705
3.643910, 2.690798, -0.960374
1.374025, -0.235532, 0.890746
1.306248, -0.098841, 0.619641
1.436951, -0.280875, 1.000560
1.532964, -0.275453, 1.123058
1.323664, -0.159636, 0.824512
1.350826, -0.279356, 0.809945
1.454029, 0.078458, 1.134956
1.818298, 0.307338, 1.461168
2.096708, -0.283911, 1.268055
2.137771, 0.150643, 1.441165
1.459572, 0.048567, 1.152719
1.965026, -0.423665, 1.311644
1.911495, -0.320229, 1.339576
0.986942, -0.329993, 2.726307
0.986672, -0.329331, 2.730266
1.948133, -0.051941, 0.901624
1.903557, -0.163547, 1.476178
1.905560, 0.063008, 1.652297
0.548909, -0.158433, 2.289242
1.145438, -0.290507, 2.128771
3.213031, 0.910881, 0.477901
1.973009, 0.411953, 1.154994
4.147424, 0.039993, -0.542770
2.898494, -0.095559, 0.660748
2.872568, -0.102733, 0.660680
2.179463, -0.563214, 1.145998
1.439119, -0.217955, 1.041680
2.448165, -0.286398, 0.022715
2.035463, -0.155171, 0.468705
1.962370, -0.075887, 1.528741
0.428803, -0.105882, 1.013173
0.388996, -0.014249, 0.968244
0.349872, 0.001705, 0.923364
1.969506, 0.385292, 1.310752
1.759598, 0.230684, 1.157228
2.010217, -0.302969, 1.518205
1.480597, -0.164866, 2.477411
1.458899, -0.234922, 2.467164
1.163442, -0.535689, 2.587919
0.147371, 0.062292, 2.339493
0.669948, -0.064471, 1.578387
1.051383, -0.231075, 1.802107
1.698983, 0.088382, 1.443518
1.280766, 0.128111, 0.933939
1.295262, 0.183688, 0.674539
1.269696, 0.123500, 0.917331
1.619154, -0.141267, 2.304579
0.646461, -0.067074, 1.574288
1.923266, 0.056919, 1.677113
1.996730, -0.249022, 1.359336
1.564766, -0.177450, 1.177687
2.020986, 0.393560, 1.274698
0.409609, -0.033693, 1.038288
0.536769, 0.022307, 1.174145
0.458044, 0.045776, 1.077259
0.451202, 0.089532, 1.150918
0.562275, 0.146235, 1.240913
0.580364, 0.187921, 1.250993
0.547604, 0.111335, 1.143146
0.458785, 0.188268, 1.095197
1.325718, -0.084705, 0.933414
1.493187, 0.285487, 1.119820
1.277535, 0.135266, 0.925915
1.817182, 0.467725, -0.596363
2.456511, 0.569680, -0.435657
2.093088, 0.496385, 0.074154
1.302789, 0.218240, 0.681383
1.770851, -0.240536, 1.217843
1.840468, -0.247613, 1.231514
1.327766, 0.285952, 1.044910
1.284206, 0.199688, 0.675860
1.299944, 0.186567, 0.694208
1.392056, 0.245991, 0.588153
1.788996, 0.515887, -0.551542
1.821499, 0.396416, 0.113926
1.413956, -0.199847, 0.831159
2.072984, 0.260763, 1.254836
1.962667, -0.075232, 1.503069
0.455181, 0.044652, 1.072464
0.463948, 0.162481, 1.075758
0.542589, 0.000449, 1.205069
1.673397, -0.043463, 1.933203
0.796439, -0.405373, 2.831758
0.681286, 0.015617, 1.400153
0.426992, -0.032129, 1.034993
0.527746, 0.080989, 1.131618
0.677415, 0.159750, 1.502235
0.363381, 0.179174, 1.048268
0.562135, -0.149968, 1.161417
0.524750, -0.039583, 1.095771
0.444847, -0.008172, 1.019423
1.891723, -0.484537, 2.463794
1.977671, 0.082081, 2.264009
2.953926, -0.164614, 2.726625
0.442642, -0.001940, 1.019405
0.057339, -0.164441, 1.974125
0.310745, -0.111606, 2.172564
1.719465, 0.195700, 1.958023
0.605277, -0.802681, 2.429517
1.265244, -0.634057, 2.455767
1.300023, -0.637228, 3.563636
1.355808, -0.305914, 2.269786
1.302856, -0.379739, 2.678957
1.747693, -0.065365, 2.198299
2.137741, -0.371834, 1.220526
1.744273, 0.143018, 1.934889
1.051400, 0.060539, 1.869977
1.841370, -0.591595, 3.487928
2.427974, -0.101805, 2.120929
2.322813, -0.081644, 1.781876
0.805768, 0.025988, 1.722799
0.592049, -0.362293, 1.624602
1.890403, -0.055559, 2.214417
2.098264, 0.108210, 2.154986
1.814026, -0.148314, 2.393700
1.039905, -0.040696, 1.574902
2.105184, -0.076224, 2.592846
1.687673, -0.250683, 2.843817
1.939556, -0.110561, 2.248621
2.086884, -0.180380, 2.431532
1.909564, -0.116309, 1.525107
1.729856, -0.550664, 3.151731
1.269844, -0.276978, 1.996303
0.723989, -0.111446, 1.422091
0.431068, 0.055793, 2.179693
0.759427, -0.026155, 2.648053
0.365545, -0.295240, 1.839883
1.240847, -0.324240, 2.018135
0.752783, -0.534958, 2.730520
0.664602, -0.252815, 2.425221
0.206800, -0.098126, 2.125210
0.531951, -0.216459, 2.302594
0.477467, -0.055966, 2.277122
1.545417, -0.231273, 2.738459
1.928731, -0.086081, 2.711035
1.640345, -0.211761, 2.678070
0.362367, -0.282119, 1.328733
0.811161, 0.016790, 1.503824
1.740927, -0.135795, 2.165468
1.873932, -0.771729, 2.493511
1.454584, 0.034855, 1.701957
3.031817, -0.381921, 2.654604
0.526024, -0.135903, 2.276673
0.465259, -0.296160, 1.496842
0.158672, -0.058095, 2.249526
1.140897, -0.293764, 2.114381
0.782790, -0.256524, 2.611788
2.009505, -0.134615, 2.605080
2.440042, -0.100228, 2.136342
1.918834, -0.110252, 2.227988
1.965200, -0.130541, 2.595973
0.508182, -0.529490, 1.639869
0.561358, -0.131290, 1.227501
0.561432, -0.270956, 1.177431
0.408423, 0.091818, 1.859854
0.345963, 0.225244, 1.694109
0.449145, 0.006278, 1.021600
0.479836, -0.146409, 2.232137
0.672021, -0.841139, 2.598576
0.508034, -0.070168, 1.140593
0.785075, -0.687532, 2.404450
1.415203, -0.194200, 2.566610
0.524856, 0.013630, 1.165951
0.599439, 0.079021, 1.220630
0.347541, 0.117217, 0.934569
0.338741, 0.080624, 0.951059
0.459275, 0.134140, 1.181884
0.379286, 0.179579, 1.090512
1.298747, -0.312535, 2.070578
1.134722, -0.234935, 1.855785
0.566510, -0.346190, 2.352987
0.711153, -0.292426, 2.488570
0.330735, 0.026987, 2.110213
1.039439, -0.198671, 1.792556
0.589322, -0.133547, 2.454289
1.170303, -0.192218, 2.121940
0.661281, -0.389941, 2.497023
1.576280, -0.581552, 3.237384
1.397964, -0.328658, 2.565692
2.302053, -0.114841, 2.040897
0.577312, 0.058488, 1.237489
0.495675, 0.146518, 1.832842
1.928284, 0.227418, 1.772675
1.386954, -0.117288, 1.665795
0.555143, -0.345027, 1.642703
0.626257, -0.192018, 2.409729
1.250491, -0.318872, 2.043932
1.169010, -0.286098, 2.113453
0.736909, -0.795128, 2.698511
1.152341, -0.722199, 2.513896
1.306842, -0.382490, 2.637543
0.837067, -0.583169, 2.876204
1.411502, -0.176917, 2.507713
1.258489, -0.314920, 2.035665
1.307446, -0.304281, 2.073878
