1.856138, 0.457351, 0.416599
1.554553, 0.059925, 0.616329
1.242189, 0.248102, 0.684474
1.477569, -0.193923, 0.987798
1.334143, -0.100462, 0.782338
2.136187, -0.300137, 0.699422
1.569993, 0.074375, 1.257628
2.207765, -0.239807, 1.379023
1.379644, -0.323339, 2.609489
1.036780, -0.721788, 2.899745
0.781225, -0.440193, 2.994354
1.420022, -0.373376, 2.273103
2.442409, -0.963146, 2.480478
2.095823, -0.288254, 1.622882
2.650088, -0.753774, 1.637479
2.687515, -0.179811, 1.813038
1.933019, 0.345256, 1.673961
1.304868, -0.098649, 0.880825
1.885244, 0.766165, 0.435814
1.354825, 0.157195, 1.007215
1.281955, 0.165017, 0.940283
1.220304, 0.240458, 0.705332
1.218187, 0.109894, 0.799490
1.310881, 0.069689, 0.926699
1.361818, 0.328773, 0.919390
1.028422, 0.026331, 2.291423
1.249694, -0.104108, 0.763773
1.348071, -0.141535, 0.824574
1.995162, 0.183448, 0.310206
1.998796, 0.618223, -0.304070
1.964146, 0.661680, -0.366931
1.398721, -0.163912, 0.884630
1.355123, -0.166857, 0.909441
1.762260, 0.460649, -0.088104
2.341293, 0.502885, 0.092538
1.282374, 0.159785, 0.969370
1.476944, -0.141737, 1.079213
2.094873, 0.469903, -0.239085
1.349150, 0.152435, 0.997541
1.406065, 0.160147, 0.760865
1.177884, -0.044766, 0.854129
1.484031, -0.106933, 1.099943
1.214491, -0.116602, 0.798831
2.351469, -0.393587, 1.460182
2.215445, -0.247008, 1.375639
1.384145, 0.194969, 0.795137
2.369323, 0.173086, 1.617055
1.563679, 0.311427, 1.316728
1.462776, 0.150954, 0.718839
1.211709, -0.090521, 0.719458
1.220774, 0.257796, 0.718740
2.304518, 0.081400, -2.285405
1.879358, 0.599956, -0.597341
1.459281, -0.250060, 0.947297
1.208043, -0.174862, 0.683656
1.235716, -0.167439, 0.719010
1.584166, -0.220843, 0.985309
1.343280, -0.141103, 0.819050
1.300565, -0.120644, 0.861293
1.932696, 0.615093, -0.681751
1.252475, -0.157980, 0.724741
2.297862, -0.473041, 3.744872
1.417718, -0.245947, 3.407179
1.054679, -0.121776, 2.921088
1.697879, -1.009355, 2.476101
1.537981, -0.395993, 3.082496
1.791350, -0.447445, 3.057507
0.533421, -0.117887, 2.392458
0.968393, 0.023481, 2.296869
1.176407, -0.005257, 2.201965
0.695961, -0.546511, 1.706148
0.425127, -0.108556, 2.336239
0.498542, -0.128665, 2.393432
1.063548, -0.051633, 2.567861
1.403801, -0.179872, 0.891792
1.390785, -0.180558, 0.858586
1.394755, 0.203423, 0.786490
1.194342, -0.376538, 2.847867
1.371225, -0.186818, 0.916394
1.871497, -0.276434, 1.047763
1.513476, 0.450157, 0.738541
2.302701, -0.262663, 1.483616
1.692676, 0.241562, 1.444848
1.588264, 0.329325, 0.204260
1.899212, 0.597017, -0.365166
1.895813, 0.519352, 0.271873
0.549343, -0.045290, 1.336818
0.472543, -0.039645, 1.128574
1.356262, -0.166737, 0.845245
2.181945, 0.591299, -0.040285
2.625420, 0.738342, -0.328816
2.628966, 0.621203, -0.450694
2.613185, 0.615977, -0.434349
1.471067, -0.189339, 0.963086
0.570903, -0.315697, 2.877991
2.732285, -0.255163, 3.179981
0.785372, -0.320579, 2.717601
1.185835, -0.289525, 2.922340
0.426305, 0.035168, 2.364002
0.515119, -0.518479, 2.836461
0.740120, -0.612989, 1.910105
0.793005, -0.633084, 1.972003
1.034024, -0.714710, 2.788618
0.576431, -0.349703, 2.572051
3.478396, 0.381580, -0.189572
2.907990, 0.501444, 0.474349
3.537724, 0.516697, -0.605917
2.093424, -0.282829, 1.659315
3.032359, 0.033306, 0.293870
2.586761, 0.082720, 0.591085
2.119115, 0.278600, 1.232449
2.174960, -0.227642, 1.480569
2.317822, 0.097607, 1.397352
3.979599, 0.743208, -0.015039
1.871709, 0.219021, 1.262530
2.192463, -0.084242, 1.824002
2.646292, -0.223942, 1.006509
2.260726, -0.064531, 1.842790
1.877645, 0.226192, 1.258027
2.094513, 0.144978, 1.636346
2.530397, -0.222157, 0.594048
2.798445, -0.091630, 0.412938
2.289211, 0.209702, 1.392823
1.885939, 0.244117, 1.262846
2.074252, 0.189519, 1.639475
2.193629, -0.181852, 1.392532
2.303761, -0.342648, 1.348460
2.180506, 0.292189, 1.735840
2.060783, -0.107772, 1.586382
2.421746, -0.080578, 1.526767
2.071740, -0.285373, 1.533728
2.021704, 0.219442, 1.710502
2.060122, 0.170200, 1.549807
2.257433, -0.215646, 1.491952
2.325769, 0.166186, 1.576193
1.721702, 0.262161, 0.573062
2.492879, 0.553394, -0.322268
1.218985, 0.282674, 0.709191
1.487286, 0.113462, 1.154741
1.252539, 0.209886, 0.720015
0.844069, -0.328055, 3.097713
1.030016, -0.433688, 2.899941
1.675239, 0.842537, -0.817887
1.374943, 0.134706, 1.024883
1.434357, 0.183663, 0.828145
2.011431, -0.213974, 0.960156
1.903515, -0.298529, 1.102122
1.791573, -0.258517, 2.945229
1.713245, -0.100333, 2.429941
0.868471, -0.661906, 2.076553
0.647253, -0.566472, 1.789293
3.807222, 0.931615, 0.398485
3.851636, 1.049780, 0.192590
3.645269, 0.430307, -0.091687
2.551221, 0.079058, 2.438408
1.274878, -0.020812, 2.316838
0.993876, -0.423246, 2.818645
1.089897, -0.771767, 2.422702
1.315423, -0.253565, 2.649869
0.791120, -0.661052, 1.963600
2.034106, -0.630922, 2.627568
1.898325, -0.580327, 2.755332
1.764797, -0.193757, 2.555618
0.467067, -0.146848, 2.357214
1.188630, -0.713297, 2.757896
0.537513, -0.879943, 2.682654
0.675731, 0.106559, 2.137953
0.381538, -0.133828, 2.332446
0.873589, -0.130068, 1.952039
0.964116, -0.166564, 1.784200
-0.103750, -0.240303, 2.119092
1.121679, -0.216527, 1.935892
2.170355, -0.825749, 1.782347
2.736547, -0.201716, 0.981005
1.320188, -0.080239, 0.666843
1.064899, -0.113843, 0.934788
2.347021, 0.227500, -2.338634
0.570684, -0.150431, 2.465166
0.500212, -0.185182, 2.387398
0.637641, -0.172406, 2.507959
0.570041, -0.147933, 2.467918
0.453301, -0.042109, 2.370328
0.000085, -0.026027, 2.124133
0.000824, -0.257817, 2.284647
0.950186, 0.016646, 2.377857
1.354149, -0.139927, 0.829294
1.407892, 0.158533, 0.764542
1.361687, 0.135392, 1.009303
1.425252, 0.305491, 1.145762
1.666571, -0.224389, 1.288921
1.492350, 0.295810, 0.216962
1.904175, 0.434118, -0.521845
2.206063, 0.134406, 1.537956
2.408151, -0.120075, 1.517379
1.609971, 0.305387, 1.225390
1.974543, 0.359904, 1.592437
1.488806, 0.112366, 1.160296
1.808474, 0.345433, 1.324710
1.294753, 0.401673, 0.784242
1.410322, 0.282335, 1.155504
1.373697, 0.342781, 0.911067
1.720258, 0.376930, 0.423335
4.207930, 1.268187, -1.443432
1.589578, 0.335692, 0.185330
1.563352, 0.271578, 0.282307
1.220804, -0.345878, 2.356040
2.040974, 0.215688, 1.546382
2.291332, -0.567859, 1.333363
1.666182, -0.417884, 1.130274
2.320607, -0.602860, 1.346297
1.340827, -0.124747, 0.825859
1.414314, -0.271923, 0.852022
1.485620, -0.183455, 0.984380
1.518889, -0.251099, 0.995569
1.317383, -0.179321, 0.823903
1.265390, -0.500318, 2.736412
0.672202, -0.635871, 2.835739
0.512810, -0.177512, 2.372063
0.691127, -0.330684, 2.640346
0.820855, -0.493216, 3.176937
1.508024, -0.361761, 2.750489
0.482050, -0.034227, 1.099219
0.970008, -0.157934, 3.253782
0.742480, -0.703564, 2.843305
1.199374, -0.129167, 3.011482
0.609823, -0.294980, 2.539486
1.320684, -0.481018, 2.721464
0.846898, -0.229675, 2.768837
1.301170, -0.498097, 2.854111
1.558110, -0.217631, 2.756945
0.606365, -0.362963, 2.521974
1.512469, -0.502746, 2.956124
2.071428, -0.483838, 3.093668
1.479514, -0.373722, 1.001369
1.480195, -0.235365, 1.058921
1.480147, -0.235723, 1.058820
0.632440, -0.177624, 1.277319
0.552273, -0.076478, 1.242497
0.553750, 0.004634, 1.305623
2.352105, -0.583698, 1.373926
1.373711, -0.314986, 0.745206
1.538726, -0.341762, 1.102852
2.806818, -0.468870, 0.879595
3.709100, -0.334788, -0.233231
1.923547, 0.618000, -0.511041
1.360774, 0.145003, 1.006478
1.742501, 0.575680, -0.386389
1.273925, 0.164163, 0.717941
1.296923, 0.426807, 0.787563
1.440904, 0.276951, 0.778165
2.652589, 0.320746, 1.153402
2.311515, -0.644369, 1.319193
3.114251, -0.619288, 0.651298
2.077389, -0.157469, 0.819674
2.307213, -0.647214, 1.319367
1.819544, -0.218275, 1.041657
1.239183, -0.175189, 0.762900
1.367290, -0.186874, 0.840632
1.324939, -0.281109, 2.169117
0.816047, -0.386668, 2.743181
0.749919, -0.218533, 2.628618
1.329321, -0.344729, 2.498768
1.569859, -0.232066, 2.740550
1.945963, -0.581730, 2.715747
0.772270, -0.305633, 2.683475
1.336868, -0.813511, 2.225645
1.422085, -0.690228, 2.546404
1.624015, 0.724448, 0.627150
1.849308, 0.481734, -0.114555
1.270086, 0.179030, 0.703689
1.704820, 0.733010, 0.539222
1.674784, 0.623673, 0.611472
1.817575, 0.551139, -0.375260
2.599474, 0.739881, -0.326968
1.440685, 0.192417, 0.821272
1.304598, -0.115929, 0.856759
2.086668, 0.470154, -0.237582
2.177830, 0.635895, -0.558692
2.082160, 0.460272, -0.225355
1.983621, 0.321769, 0.350713
2.283738, 0.709237, -0.716974
1.354241, -0.140479, 0.828433
1.332916, -0.131989, 0.815801
0.348487, 0.027182, 2.300424
0.389496, -0.291238, 2.329216
0.235847, -0.088365, 2.284687
0.469951, -0.324348, 2.426331
0.558830, 0.094157, 2.555271
1.386950, 0.197444, 0.750289
1.128040, -0.122206, 1.964193
0.709011, 0.176055, 1.750710
0.979536, 0.022777, 1.812216
0.728701, 0.154544, 1.769872
0.469068, -0.035552, 1.126158
0.469220, -0.114000, 1.106275
2.102539, -0.394725, 1.503206
1.928545, 0.309538, 1.518268
2.027682, 0.110334, 1.811553
1.559305, -0.191814, 1.165388
2.081600, 0.248008, 1.926234
1.224154, -0.186375, 0.750912
1.635634, 0.523805, -0.205271
1.933954, 0.283768, 0.368332
3.085197, -0.482885, 2.023093
2.187640, -0.407660, 3.187631
2.427802, -0.683311, 1.612610
0.492176, 0.097421, 1.253424
0.543335, -0.071465, 1.214245
0.493938, -0.002120, 1.123662
0.474648, 0.030194, 1.185736
0.478516, 0.194685, 1.201641
1.760506, 0.513153, -0.212853
1.370871, 0.143462, 1.019370
1.310324, 0.179512, 0.963142
0.484821, -0.051351, 1.159550
0.471905, 0.162693, 1.255270
0.537011, -0.097280, 1.189983
0.753996, -0.008450, 1.521870
0.559043, 0.096210, 1.267916
0.418005, -0.014984, 1.059945
1.715225, -0.180534, 2.719697
1.296064, -0.817929, 2.235174
1.493692, -0.170517, 2.663862
1.704948, -0.284744, 2.962817
1.534186, -0.281161, 2.751179
1.781028, -0.733576, 2.820578
1.476431, -0.205561, 0.986180
2.193243, -0.330871, 1.359966
2.331532, -0.641680, 1.323746
2.390484, -0.591433, 1.109393
3.548951, -0.493154, 0.372822
1.463584, -0.695432, 2.624394
1.265345, -0.493961, 2.679966
2.393532, -0.120566, 1.984738
2.205639, -0.765681, 2.203185
2.307181, -0.903917, 2.341439
2.521940, 0.046693, 2.300615
2.266019, -0.325488, 2.549966
2.419062, -0.113180, 2.144077
0.570010, 0.015505, 1.261471
0.898547, -0.147546, 1.949247
0.771299, -0.848154, 2.899815
1.392261, -0.313574, 2.204465
1.981064, 0.310266, 1.616291
1.994502, 0.318229, 1.622426
2.050813, 0.231651, 1.667200
1.872058, -0.259988, 1.318782
1.332292, 0.220744, 0.954503
1.562729, 0.091738, 1.247266
1.980414, 0.364527, -0.811863
1.293825, 0.217088, 0.716703
1.490438, 0.357910, 0.720642
1.388788, -0.004137, 0.778074
1.397058, 0.207475, 0.740039
0.488436, 0.023605, 1.216093
0.489552, -0.001774, 1.120655
0.431962, 0.212305, 1.110415
0.421728, 0.085193, 1.093180
0.479056, 0.157701, 1.245434
1.782274, 0.321667, -0.646646
2.166186, 0.689935, -0.530289
2.082172, 0.152774, 1.556746
1.299226, 0.413059, 0.777605
1.868065, -0.269334, 1.317493
1.489039, -0.044196, 0.669107
2.409356, 0.479582, -0.107627
1.697100, -0.191052, 2.697268
1.264895, -0.490493, 2.690798
2.143207, 0.063411, 1.577880
1.937806, -0.249710, 1.032085
0.312718, 0.014742, 2.171579
1.360120, -0.148074, 0.889912
0.847674, -0.446179, 3.010277
1.879339, -0.562998, 2.795110
2.058998, -0.119922, 2.897131
1.561119, -0.386124, 2.976434
2.246349, -0.334149, 2.533837
2.217481, -0.075382, 2.651302
2.091913, -0.115146, 2.429011
1.982085, -0.107841, 2.443490
2.087763, -0.113627, 2.874082
1.598170, 0.241332, 0.319892
3.060812, 0.225065, -2.917380
1.514390, 0.233625, 0.323185
2.223963, -0.240248, 1.904805
2.371082, 0.405903, 0.927954
2.340134, 0.290088, 1.445043
2.301866, 0.334601, 1.368724
2.701838, 0.203945, 1.135453
1.919423, -0.624901, 2.725395
1.487888, -0.355538, 2.796448
1.141331, 0.372568, 0.617507
1.421450, -0.090654, 1.024460
1.893318, 0.413340, -0.619353
1.930443, 0.334566, -0.690241
1.364037, -0.097290, 0.774289
1.360032, -0.073482, 0.783414
1.413997, -0.163851, 0.987310
2.458275, -0.211994, 1.250959
0.517191, -0.029161, 2.436705
0.555996, 0.028059, 2.441408
0.637554, -0.302830, 2.546154
2.085408, -1.021130, 2.704278
2.109489, -0.115723, 2.834191
2.063366, -0.079099, 2.411897
0.609206, 0.129891, 1.226835
0.559577, 0.240329, 1.321494
0.422186, 0.209916, 1.098651
2.073510, -0.320948, 1.638366
2.215117, 0.153736, 0.933330
2.647037, 0.440661, 0.649218
2.282680, 0.235484, 1.480934
0.422623, 0.056355, 1.134146
0.640888, 0.048459, 1.383321
0.542281, 0.182321, 1.255237
0.723316, 0.150068, 1.744133
1.426640, -0.272287, 2.279099
1.671672, -0.251108, 2.968735
2.820858, 0.504663, 0.703838
1.651611, -0.123831, 1.300961
2.459556, -0.130484, 0.628463
2.249889, -0.066999, 1.839162
1.646868, -0.126347, 1.307818
2.853237, -0.084433, 0.360338
2.100451, -0.279420, 1.659509
2.057264, -0.039023, 1.750142
3.333703, 0.906678, 0.603074
2.109280, 0.362644, 1.153531
2.025513, 0.272028, 1.739133
2.036210, 0.251592, 1.720415
1.248854, -0.861692, 2.731986
1.268313, -0.475088, 2.701218
1.575016, 0.086374, 1.263345
2.483183, -0.092538, 1.920947
2.042453, -0.653627, 2.612528
2.346752, -0.932168, 2.221163
2.310664, 0.106614, 1.960716
3.145455, -0.365117, 1.927844
2.493158, -0.698851, 1.646550
2.263624, -0.064825, 1.844763
2.184810, -0.079385, 2.451019
2.253771, -0.734801, 1.726403
2.626572, -0.601873, 0.905464
2.333327, -0.067875, 1.886303
2.273744, -0.062802, 1.849526
2.275423, -0.807909, 2.303906
2.156202, -0.175387, 1.785364
2.868519, -0.196110, 2.408192
2.395947, -0.753805, 2.028994
2.152751, -0.928404, 2.460575
2.052482, 0.190264, 1.570264
1.574437, 0.057878, 1.256571
2.151048, -0.068334, 3.024772
1.339633, -0.816362, 2.240387
1.380922, -0.817108, 2.229726
2.399112, -0.095015, 2.038489
1.510492, -0.752074, 2.630381
2.632529, -0.924881, 2.115902
1.461017, -0.609312, 2.757301
1.416009, 0.179355, 0.749276
1.448842, 0.214164, 0.570759
3.050390, 0.005610, -1.855995
2.665780, 0.194060, -2.448708
1.504231, -0.183509, 0.982733
3.219767, 0.209425, -2.963382
1.921793, 0.761987, -0.503067
2.418617, -0.795802, 2.196298
1.511099, 0.088272, 1.202453
1.487307, 0.332049, 0.620766
1.362023, 0.121453, 1.050319
1.387749, 0.143134, 1.044197
1.372123, -0.294275, 2.203235
1.875466, -0.598207, 3.784934
1.401607, -0.342470, 2.222107
1.554784, -0.485338, 2.976223
0.476537, 0.023714, 1.138687
0.627684, -0.070870, 1.287301
0.725098, -0.074062, 1.671798
0.463615, 0.060502, 1.130052
2.318920, -0.049034, 1.858827
2.035719, 0.443292, 1.236795
3.184673, 0.510837, 0.265543
2.572012, 0.319856, 0.758044
1.883516, 0.584284, -0.400087
1.918005, 0.356977, 1.649764
1.430230, -0.161904, 0.917354
2.006363, 0.465758, -0.130331
1.232171, -0.103498, 0.771944
0.789941, -0.212360, 2.733806
0.778860, -0.188354, 2.727928
1.518290, -0.250671, 1.098947
1.282155, -0.126435, 0.830735
2.198241, -0.761332, 2.198357
2.184513, -0.247446, 2.485329
2.273513, -0.358536, 1.452341
2.202390, 0.087943, 1.541637
2.041854, 0.062521, 1.789903
2.094611, 0.071261, 1.595196
2.020225, 0.192617, 1.627275
1.507031, 0.127250, 1.165434
1.297618, -0.118166, 0.855541
1.340020, -0.230706, 0.776626
2.254003, -0.225528, 1.489033
2.182923, -0.265123, 0.809219
2.293637, -0.684165, 1.279968
2.007222, 0.267532, 1.556020
1.460517, -0.222421, 1.036544
2.419075, -0.940054, 2.156038
2.520088, -0.095015, 2.264643
2.425393, -0.903427, 2.124965
1.857540, -0.834789, 2.676048
2.646038, -0.575504, 2.334228
2.392970, -0.093317, 2.032592
1.408674, -0.411244, 2.833236
1.569384, 0.090667, 0.589946
1.576346, 0.048306, 1.261149
1.375716, 0.225622, 0.732498
1.210517, -0.120803, 0.712366
1.306210, 0.169373, 0.953153
1.461293, -0.206146, 1.024673
1.689877, 0.320109, 0.471252
1.444100, -0.204738, 1.026617
1.242922, -0.110662, 0.874196
1.309249, 0.159984, 0.955184
1.370256, 0.181295, 0.804309
2.429566, -0.942508, 2.160760
2.515210, 0.027301, 2.299390
2.176892, -0.059822, 2.614226
1.851392, -0.916692, 2.650098
2.459201, -0.829822, 2.192903
2.217508, -0.761517, 2.194299
2.427245, -0.811214, 2.196863
2.257460, -0.493176, 2.512226
2.496788, -0.074042, 2.228019
2.248139, -0.489839, 2.510818
2.583753, -0.911038, 2.097331
2.299518, -0.802429, 1.975548
1.507225, -0.750961, 2.623335
3.154876, -0.243267, 2.432480
2.384113, -0.702803, 2.099103
2.104584, -0.087148, 2.981550
1.356250, 0.165583, 0.872464
1.414339, -0.417488, 2.838376
2.162519, -0.113168, 2.737108
2.650098, -0.047962, 2.349703
2.449569, 0.012669, 2.206839
0.529662, -0.218401, 2.424282
0.420033, -0.085845, 2.332299
2.248115, -0.403227, 1.254772
1.519305, -0.251067, 1.099624
2.081573, -0.472747, 1.533089
2.290725, 0.244864, 1.476746
2.038924, -0.122804, 1.632769
2.233642, -0.389933, 2.503969
2.245181, -0.484756, 2.513885
2.190183, -0.582901, 2.513220
1.847488, -0.874833, 2.657756
2.676464, 0.032484, 2.515955
2.573111, 0.047957, 2.487191
3.470308, -0.164594, 2.429056
2.941754, 0.009018, 2.129059
1.375339, -0.811377, 2.218821
2.421564, -0.113338, 2.143525
2.493040, 0.018287, 2.159618
2.029994, -0.133688, 2.879349
1.671122, -0.251092, 2.972018
1.415096, -0.418271, 2.834757
2.134528, -0.132113, 2.709321
1.377471, -0.813744, 2.221574
2.151929, -0.662560, 2.528196
2.148584, -0.969633, 2.442878
1.858505, -0.917884, 2.698948
1.826388, -1.066027, 2.619553
2.262967, -0.806413, 2.297426
1.927381, -0.255594, 2.861688
2.345295, -0.936083, 2.220935
2.696245, -0.116637, 2.454835
2.611137, -0.808087, 2.335795
2.211258, -0.119632, 2.469774
1.337723, -0.814792, 2.228720
1.938509, -0.814337, 2.623911
1.511384, -0.493374, 2.939165
2.786862, -0.094328, 2.405902
2.305818, -0.548423, 2.437970
2.520011, -0.095103, 2.262790
2.470290, 0.010433, 2.137164
0.594495, 0.111768, 1.249809
0.790410, -0.011737, 1.539940
0.613214, -0.146149, 1.280956
0.450023, 0.175456, 1.167768
0.519187, 0.032945, 1.222638
0.174373, -0.362082, 2.334077
1.012556, -0.686398, 3.294540
0.499611, 0.099552, 1.243831
0.568885, 0.065087, 1.329922
0.637701, -0.166321, 1.282231
0.632061, -0.155596, 1.334921
1.998194, 0.250455, 1.580775
1.405033, 0.207949, 0.820139
1.438737, 0.131667, 1.106233
1.657486, 0.248239, 0.574359
1.387007, 0.200633, 0.751437
1.325936, 0.187391, 0.975351
2.436084, -0.855552, 2.121526
2.580304, -0.579406, 2.309616
2.106777, -1.059601, 2.414690
1.882469, -0.637455, 2.775836
2.300809, -0.925244, 2.389254
2.532745, -0.712913, 1.663501
2.117073, -0.787962, 1.717205
1.804037, 0.304379, 1.488712
1.564216, 0.084739, 1.242467
1.293437, 0.421619, 0.791144
2.256408, -0.290334, 1.352728
2.711188, 0.488597, 1.072488
2.443881, -0.466542, 1.153386
2.071037, -0.102841, 1.559537
2.375709, -0.576812, 1.210497
1.237014, -0.100594, 0.763817
0.177470, 0.282841, 1.799227
0.240753, -0.106057, 2.292383
1.235565, 0.260783, 0.704325
1.384528, 0.124269, 1.035168
1.425152, -0.160678, 0.919777
1.666035, 0.233298, 1.296424
1.367706, 0.147578, 1.016550
1.408633, 0.163929, 0.771061
1.321197, -0.135340, 0.826632
1.446189, -0.183691, 0.885363
0.544540, -0.069263, 1.212632
1.335926, 0.166026, 0.969505
1.846810, 0.614983, -0.486483
2.057980, -0.138272, 2.825924
2.570786, -0.546836, 2.196892
2.289852, -0.498395, 2.468270
1.997878, -0.872436, 2.744723
2.156804, -0.821765, 1.780964
2.150519, -0.710498, 1.804747
1.774340, 0.338784, 0.582620
1.985681, 0.272610, 1.589349
1.391502, -0.167616, 0.869596
1.401811, -0.423811, 2.790017
2.355464, -0.552350, 2.381385
1.951122, -0.857475, 2.690980
2.412572, -0.752139, 2.044322
0.372024, -0.259585, 2.346498
3.272828, 0.558124, 0.188424
2.477869, 0.443214, 0.841639
2.123238, -0.115586, 1.676969
1.899038, -0.213012, 1.066233
1.831502, 0.257363, 1.332447
2.740652, 0.482466, 0.701167
2.071642, -0.135528, 2.796829
2.137302, -0.867393, 2.518531
2.808985, -0.294754, 3.175391
2.042336, -0.653160, 2.612963
2.079380, -0.613563, 2.599311
2.235189, -0.556850, 2.482360
2.038093, -0.562300, 2.657378
2.365078, -0.941590, 2.428349
2.114522, -0.145504, 2.798540
2.560459, -0.903090, 2.086029
2.196854, -0.591712, 2.527711
2.698429, -0.690527, 1.391679
1.751607, -0.284000, 1.177594
2.052557, -0.343867, 1.455296
1.250445, -0.143653, 0.759263
1.341514, -0.133306, 0.809660
1.277434, -0.127435, 0.835787
1.444209, 0.114530, 1.101353
2.276035, 0.273489, -0.974164
1.297473, -0.083835, 0.862961
1.928381, 0.375532, -0.726532
2.095605, -0.105403, 1.522263
1.557556, -0.296498, 0.870250
1.478928, -0.341836, 0.897152
2.541436, 0.007397, 2.341758
1.719610, -0.604764, 2.912986
2.286704, -0.811708, 2.308038
1.668701, -0.254012, 2.965031
1.184083, -0.252388, 1.961159
1.600198, -0.157514, 2.663830
0.505905, -0.153087, 2.452870
0.866816, -0.189131, 2.847953
0.679910, -0.193938, 2.590416
0.838630, -0.600978, 3.264025
1.604194, 0.032466, 1.316236
0.631245, 0.073553, 1.329071
2.014594, 0.212192, 1.601313
2.150954, -0.086027, 1.399032
2.119257, 0.057072, 1.627481
2.065253, 0.185690, 1.640972
2.027951, 0.081519, 1.795510
2.131297, -0.095357, 1.540292
2.125602, -0.021851, 1.387094
2.044720, 0.152486, 1.542778
1.448782, -0.277000, 2.273050
1.148157, -0.966999, 3.109006
1.241259, -0.786966, 2.734186
1.570891, -0.356539, 2.820444
1.525662, -0.350912, 2.737363
1.336294, -0.233806, 2.218368
0.199279, -0.117814, 2.245786
1.171558, -0.689566, 2.674232
0.621276, -0.013780, 1.323776
0.569320, -0.011967, 1.288509
0.590118, 0.124856, 1.259778
0.731099, 0.155784, 1.771697
0.719046, 0.108472, 1.755830
0.422848, 0.059257, 1.138717
0.588500, 0.007825, 1.222847
0.433255, -0.008119, 1.017769
0.560943, -0.024625, 1.215206
0.646072, 0.134076, 1.352631
0.474723, -0.115083, 1.104756
0.426468, -0.177251, 2.314964
1.388313, -0.494661, 2.766488
0.885348, -0.342270, 3.144913
2.354473, 0.120420, 1.386895
2.177589, -0.020177, 0.912231
2.119697, 0.325020, 1.103349
2.659702, 0.390322, 1.083060
2.072492, 0.222490, 1.659196
2.293903, -0.074093, 1.871904
2.966483, 0.530527, 0.439184
3.705637, 0.308896, -0.252255
2.096506, -0.125533, 1.679768
0.675214, 0.076609, 1.315639
0.633974, -0.078161, 1.329354
2.096789, -0.100014, 1.568533
1.327632, -0.319910, 2.512347
1.216683, -0.376151, 2.934921
0.571980, 0.073109, 1.235414
0.423032, 0.028677, 1.034148
1.441485, -0.330226, 2.240731
1.426615, -0.623052, 2.645885
1.318273, -0.481939, 2.733171
0.498692, -0.102012, 1.565548
1.051942, -0.578326, 2.879015
2.293585, 0.157524, 1.567085
1.650897, 0.042156, 1.350584
0.216892, -0.196647, 1.770782
0.733096, -0.719288, 2.845836
1.007715, -0.151200, 1.770366
2.167274, -0.275330, 1.504890
2.061625, 0.258162, 1.793288
1.433641, 0.129443, 1.103632
1.650399, -0.122517, 1.304067
2.082035, -0.454498, 1.586422
1.491351, 0.036296, 1.147395
2.392990, 0.098772, 2.066508
1.592895, 0.049463, 1.303515
2.286727, 0.238137, 1.482669
2.085935, 0.336258, 1.173044
2.136159, 0.379043, 1.231405
0.843232, -0.056890, 1.916902
1.262919, -0.505990, 2.738682
1.509350, -0.463223, 2.953916
1.341275, -0.270729, 2.190731
0.965677, -0.539743, 2.965575
1.628346, -0.391028, 2.887337
1.425570, -0.356745, 2.237215
0.728058, 0.116966, 1.794934
0.414217, -0.015969, 1.065289
0.734101, 0.173239, 1.651284
0.726463, 0.099939, 1.723247
1.565074, -0.353480, 2.831693
1.627079, -0.391576, 2.884976
1.546433, -0.351855, 2.811844
1.247262, -0.590440, 2.847605
2.151629, 0.341960, 1.406332
1.779700, 0.199864, 1.262042
1.232015, -0.313985, 2.704676
0.624977, -0.065135, 1.277938
0.582172, -0.015886, 1.324352
0.636407, -0.185150, 1.276700
2.047516, -0.308398, 1.608941
2.377146, -0.044692, 1.373962
3.728333, 0.039717, 0.212768
2.112632, 0.468088, 1.265727
2.277210, 0.358081, 1.306594
4.057666, 1.047065, 0.267069
2.074191, 0.329749, 1.187082
1.826694, 0.234300, 1.324947
2.389344, 0.083616, 1.457067
3.412423, 0.593159, 0.210502
2.096942, -0.414537, 1.661937
2.019919, 0.100082, 1.786215
2.471694, 0.419392, 0.863514
4.001932, 0.756657, -0.019681
2.012939, 0.202645, 1.618341
0.583213, 0.022128, 1.279620
0.507475, 0.178772, 1.199594
0.640143, -0.042952, 2.589582
1.120826, -0.254987, 1.971073
0.116130, -0.313123, 2.328256
0.202481, -0.227122, 2.199878
1.948901, 0.328533, 1.536556
0.633765, -0.076086, 2.557579
0.463899, -0.066413, 2.357522
2.274864, -0.261256, 1.478888
1.779277, -0.347709, 3.148943
0.831547, -0.337719, 2.708638
0.778473, -0.052586, 2.800390
1.999991, -0.124332, 2.785061
2.241190, -0.333736, 2.526907
2.236599, 0.031810, 1.887211
2.034946, 0.284747, 1.539053
1.262792, -0.627972, 2.831962
1.113509, -0.248585, 2.130226
1.420013, -0.246323, 2.277038
1.264263, -0.635424, 2.864294
1.344140, -0.307401, 2.191679
0.222847, -0.381151, 2.170585
0.639400, -0.303072, 2.547882
1.384080, -0.648419, 2.641402
1.210887, -0.261673, 1.999563
0.159149, -0.385184, 2.313351
1.218812, -0.417363, 2.887790
0.421542, 0.036842, 2.377078
0.493503, -0.062660, 1.200279
0.488320, 0.095730, 1.259834
2.090259, -0.320835, 1.637227
2.120985, -0.076992, 1.564097
0.370754, 0.080681, 2.305464
0.697880, 0.051836, 1.975509
1.077411, -0.186408, 1.841435
0.266259, -0.182509, 2.095086
1.123201, -0.218091, 1.932585
1.118166, -0.180382, 1.943136
2.434843, 0.410616, 0.883422
3.344013, -0.466845, 1.946042
0.654263, -0.123374, 2.602434
2.171581, 0.082759, 1.575409
2.533830, -0.229130, 1.071244
0.707103, -0.068377, 1.703636
0.579238, -0.093115, 1.271920
2.572411, 0.512521, 1.018857
2.298481, 0.215785, 1.406725
2.889693, -0.077908, 0.327857
1.031373, -0.434418, 2.878282
0.791119, -0.277427, 2.703652
0.569198, -0.071472, 1.403995
1.012438, 0.318147, 1.294762
1.421097, -0.144143, 1.938519
1.387528, -0.088870, 0.777577
2.486646, -0.734579, 2.034864
2.091138, -0.129403, 1.687297
2.054810, 0.024275, 1.766378
0.560617, 0.058967, 1.286381
0.556466, 0.070837, 1.363299
0.645308, 0.040855, 1.353711
0.583407, -0.175076, 1.247042
0.557991, -0.041115, 1.205321
1.652524, 0.025418, 1.345038
1.562259, 0.093985, 1.245507
1.961190, 0.302858, 1.542812
2.171233, -0.168462, 1.370115
0.407138, -0.196288, 2.268331
1.036209, -0.222870, 1.864729
0.375491, 0.015501, 2.385839
0.879756, -0.835286, 2.610540
1.126391, -0.427760, 2.539581
0.171906, 0.058311, 2.507734
0.875595, 0.014079, 1.618961
0.527707, -0.278154, 1.208280
0.193774, -0.453288, 2.138476
0.482867, -0.083908, 1.123328
0.884937, 0.072390, 1.674619
0.737103, -0.076050, 1.670773
0.663117, 0.035380, 1.312880
0.650802, 0.078932, 1.320469
1.986135, 0.245788, 1.574640
0.156297, -0.217574, 2.231174
0.302557, -0.440294, 2.083986
0.194042, 0.201502, 2.380941
0.793334, -0.381207, 2.727310
1.262326, -0.311480, 2.283089
0.529239, -0.177385, 2.435063
0.618561, -0.234635, 2.509506
0.826986, -0.669831, 2.912894
1.270728, -0.246804, 2.289021
0.226500, -0.106937, 2.309348
1.214361, -0.686100, 2.745263
0.539259, -0.140024, 2.377299
0.202608, -0.070645, 2.417244
0.471811, -0.049761, 2.416516
2.108605, 0.286043, 1.813487
2.164853, -0.198896, 1.384045
2.070106, -0.356463, 1.475101
3.393914, 0.360004, 0.112436
3.582323, 0.432649, -0.018840
2.038993, 0.338813, 1.114954
4.300286, 0.767732, -0.244774
3.627306, 0.428250, -0.083083
3.964764, 0.474941, -0.245063
2.091975, 0.378000, 1.122790
1.651701, 0.024529, 1.344305
0.353237, 0.091321, 1.047649
0.451582, 0.090375, 1.107578
0.575901, 0.118980, 1.236536
0.497704, -0.003899, 1.101061
1.300648, -0.483621, 2.740215
1.362340, -0.342236, 2.194633
1.440534, -0.319707, 2.278915
0.191311, -0.514781, 1.839565
0.121984, -0.164687, 2.648058
2.680434, 0.590521, 2.085916
2.053832, -0.343163, 1.466655
2.027908, 0.165392, 1.644863
0.734273, -0.249305, 2.366566
0.527483, 0.164132, 1.979661
1.430016, -0.544171, 2.876029
1.543458, -0.435784, 2.859249
1.506777, -0.361672, 2.741415
1.119841, -0.257544, 2.118283
0.356476, -0.282750, 2.312977
0.544226, -0.080643, 2.477081
1.997551, 0.258086, 1.636207
2.215533, -0.353970, 1.384485
1.520065, 0.173215, 0.619407
1.881889, 0.430320, 0.227083
2.153876, 0.555474, -0.010419
1.399408, -0.454394, 2.821446
1.724673, -0.744183, 2.863240
1.916573, -0.796076, 2.684556
1.260564, -0.163249, 0.691882
1.392343, 0.147130, 0.774591
1.383609, 0.163995, 0.818526
1.488126, 0.112098, 1.160217
2.189879, -0.477751, 3.597661
1.832672, 0.288734, 1.490597
1.655535, 0.057322, 1.353662
1.941608, 0.319616, 1.533880
1.808058, 0.407632, 0.373132
1.230129, -0.163804, 0.744993
1.649368, 0.227847, 0.312897
1.214132, -0.678582, 2.717389
1.536288, -0.423100, 2.900122
0.845353, -0.217723, 3.187661
1.868022, -0.158265, 2.398665
1.435652, -0.688994, 2.566410
1.223437, -0.833162, 2.270737
1.301389, -0.865275, 2.340762
2.132671, -0.083084, 2.579046
1.485754, -0.359485, 2.784549
2.809999, -1.215135, 2.886432
1.295856, -0.286269, 2.582645
1.512305, -0.515229, 2.947877
1.035805, -0.878109, 2.432817
1.053751, -0.512453, 2.877652
1.509531, -0.364054, 2.753825
0.781026, -0.438687, 2.998438
1.509387, -0.238250, 2.720033
3.869090, -0.350139, 0.094406
3.990757, 0.086236, -0.149896
3.777238, 1.017673, 0.018675
3.785823, -0.329122, -0.281964
1.320705, 0.178643, 0.981319
1.879320, 0.356318, 1.527574
1.946368, 0.286041, 1.532542
1.499932, 0.116469, 1.177050
1.710864, -0.198601, 1.305516
2.388363, -0.121063, 1.512102
1.499080, 0.115697, 1.177905
1.398439, 0.227396, 0.809800
1.779361, 0.340413, -0.623999
1.917665, 0.586426, -0.600661
0.764568, 0.002896, 2.785510
0.243464, 0.181351, 2.333858
1.572146, 0.056499, 1.256906
1.487189, 0.112563, 1.159102
1.425900, 0.144689, 1.094969
2.397262, -0.122055, 1.512450
1.305344, 0.441438, 0.777935
1.026973, -0.485657, 2.772835
0.970126, -0.152760, 3.371021
1.283216, -0.754174, 3.339012
0.729694, -0.729550, 2.864533
2.164411, -0.242465, 2.468733
2.278533, -0.552862, 2.455663
1.603303, -0.439109, 2.933812
1.707326, -0.187124, 2.713884
2.275983, -1.011899, 2.526863
2.238142, -0.951344, 2.391471
1.871786, 0.454361, -0.595009
2.042205, 0.204402, 1.587759
2.514611, 0.555075, -0.588279
1.370246, 0.343619, 0.912165
1.837752, 0.370412, -0.807228
1.344629, 0.149579, 1.004782
1.025483, -0.217492, 1.820939
0.625784, -0.911439, 2.770343
4.029613, 0.975589, 0.250095
3.521541, 0.653008, 0.197479
2.111123, -0.199573, 1.688397
3.340473, 0.392713, 0.047954
2.531484, 0.352746, 0.766304
1.284298, 0.207142, 0.725325
1.764280, 0.818897, 0.494441
1.323474, 0.103162, 0.878901
1.260838, -0.128294, 0.822631
1.488551, 0.111691, 1.160683
1.222822, -0.833758, 2.271225
2.071855, -0.465123, 3.054608
3.511574, 0.536543, 0.076255
2.026631, 0.041458, 1.680016
2.103525, -0.283714, 1.659080
0.440554, -0.028958, 1.102474
0.466228, -0.131666, 1.106181
0.422175, 0.031470, 1.038643
0.405933, 0.059538, 1.052965
0.415158, -0.025657, 1.033531
0.616506, -0.178853, 1.248287
1.417436, -0.070536, 1.024745
1.667415, 0.359685, 0.154071
2.040660, -0.288079, 1.542879
1.244489, -0.116191, 3.026666
1.523987, -0.196491, 2.698208
2.237825, -0.529914, 2.496008
1.964438, -0.543533, 2.777314
1.700322, -0.742381, 3.053313
1.367241, 0.079268, 0.833134
1.606548, 0.265153, 0.336214
1.694448, 0.249466, 0.586627
2.335191, -0.729853, 1.715346
2.952653, -0.386864, 1.885242
1.110868, -0.752348, 2.387644
1.037391, -0.434879, 2.867836
2.175049, -0.130765, 2.436501
1.443025, -0.727873, 2.569348
2.048641, -0.993870, 2.349362
2.165590, -0.977612, 2.456183
1.925750, -0.683334, 2.703654
0.614223, -0.399839, 2.888039
0.798273, -0.250931, 2.731171
1.224680, -0.127827, 0.706616
2.069923, 0.499447, -0.014043
1.464302, 0.222045, 0.796738
1.407302, 0.266522, 0.873456
1.427836, 0.197007, 0.800158
1.480892, 0.108799, 1.156870
2.498621, -0.909941, 2.113432
3.092173, -0.944459, 2.080320
3.229797, -0.221543, 2.913416
1.452886, -0.610524, 2.729833
1.379717, -0.815436, 2.227312
2.674606, -0.041849, 2.357748
1.447729, -0.359591, 0.955029
1.468945, -0.189787, 0.964228
1.406812, -0.360117, 1.003392
1.487799, -0.240808, 0.982858
1.498433, 0.089317, 1.170898
2.030020, -0.838357, 2.702382
2.129699, -1.069376, 2.432254
0.559603, -0.076316, 1.233679
0.516073, 0.127046, 1.985717
0.638657, 0.040551, 1.380064
0.543891, -0.153078, 1.166301
0.654026, 0.167312, 1.758599
0.551663, -0.075504, 1.240226
0.871552, -0.133532, 1.903376
1.198856, -0.078678, 2.052696
1.559392, 0.071099, 1.240112
1.649820, 0.078728, 1.292868
0.483923, -0.632410, 2.799720
0.556084, 0.027986, 2.443624
0.219747, -0.234835, 2.271407
0.545629, -0.132361, 1.169160
0.650657, 0.079624, 1.324101
0.524925, -0.114148, 1.321232
1.575092, 0.198853, 1.277543
2.347508, 0.118359, 1.588772
2.056363, 0.228119, 1.672974
2.132000, 0.215225, 1.682812
1.704435, -0.193093, 1.303637
1.334972, 0.178638, 0.965160
1.507597, 0.229110, 1.211824
2.646740, -0.104713, 1.073171
2.400998, -0.270616, 1.249301
2.949981, 0.761677, 0.814978
4.286607, 0.088620, -0.552331
3.050145, 0.216773, 0.852438
0.487394, -0.002305, 1.110058
0.414962, 0.037807, 1.034244
0.366507, 0.085810, 1.041793
0.426133, 0.183863, 1.180560
2.283153, -0.251071, 1.396560
1.414897, -0.117648, 1.008342
2.004906, 0.204695, 1.601809
1.885356, 0.203520, 1.475137
2.001559, 0.266779, 1.557541
1.115122, -0.267433, 2.149016
0.231406, -0.461207, 2.164075
-1.833085, -0.420573, 4.422285
0.675298, -0.154039, 2.628834
0.228341, -0.205085, 2.083665
1.338362, -0.242886, 2.199531
1.194045, -0.373179, 2.868181
0.226237, -0.116921, 2.299238
0.538349, -0.091701, 2.481402
1.295051, -0.512226, 2.761286
0.225221, -0.109832, 2.307116
1.521977, -0.308292, 1.105008
1.418344, -0.169654, 0.908300
1.418888, -0.246281, 0.885851
1.418020, -0.246719, 0.886547
2.164453, -0.798412, 1.721719
2.209865, -0.724032, 1.718073
1.536186, -0.855410, 2.283741
1.785076, -0.210916, 1.033464
1.636602, -0.250036, 1.143111
2.129532, -0.168943, 1.792346
3.051637, -0.115667, 0.727110
2.815086, -0.837019, 1.861792
3.146077, -0.474670, 2.035912
3.511694, -0.024563, 2.675930
3.387332, -0.021954, 2.614736
2.304353, -0.488223, 2.469398
2.167850, -0.852766, 2.503495
1.321548, -0.483819, 2.745021
1.465323, -0.345575, 0.965807
1.810957, -0.271879, 1.091165
1.497932, -0.265070, 0.971805
1.536462, -0.306090, 1.097337
1.518087, -0.249524, 1.099342
1.512973, -0.752961, 2.621933
2.013916, -1.031626, 2.748025
2.127462, -0.145355, 2.511814
1.909793, -0.560442, 2.843240
2.120262, -0.148307, 2.505127
2.391397, -0.119592, 2.082932
2.087821, -0.662842, 2.581265
2.056973, -0.301873, 2.870125
1.818809, 0.400345, -0.878471
1.955764, -0.296886, 0.979233
1.429890, -0.187607, 1.004683
2.312085, 0.123563, 1.561774
2.008018, 0.178869, 1.548429
0.624492, -0.143077, 2.519792
2.248443, -0.851495, 2.205978
1.919590, 0.416678, 0.205862
1.396611, -0.149373, 0.890190
1.986500, 0.449694, -0.753738
2.091954, 0.305663, -1.249827
1.655011, 0.532514, 0.689599
1.457719, -0.195939, 1.038603
2.237330, 0.599455, -0.288183
1.316237, -0.135146, 0.829137
1.416506, -0.161519, 0.922897
1.446850, 0.365891, 0.868080
2.587669, -0.051464, 2.373523
1.665068, -0.972715, 2.536594
2.403496, -0.951274, 2.453361
2.027081, -0.563787, 2.655671
1.423919, 0.134690, 1.092588
1.437480, -0.007937, 1.368524
2.210387, -0.224684, 1.371354
2.042845, 0.241696, 1.668710
2.139948, -0.082534, 1.552800
0.408914, 0.034485, 1.043328
0.401954, 0.092975, 1.058955
2.426720, 0.024860, 2.033747
2.416251, -0.149266, 2.014768
0.757545, -0.066120, 1.517761
0.593170, -0.001974, 1.302214
0.556583, -0.023970, 1.211677
0.493160, 0.183378, 1.189405
0.566865, -0.006655, 1.308824
0.588214, 0.026595, 1.286522
0.634088, -0.056786, 1.291509
1.575634, 0.073234, 1.260447
3.137188, -0.480297, 2.028406
2.443706, -0.938048, 2.147324
2.419593, -0.155793, 1.967536
2.223297, -0.613421, 2.471233
0.491515, -0.063353, 1.254247
1.996483, -1.021261, 2.543291
1.446479, 0.260127, 0.838680
1.360793, 0.180913, 0.802101
1.433616, 0.104336, 1.101479
1.947104, 0.427579, -0.677445
1.702727, 0.247982, 0.586441
1.489729, 0.113950, 1.156366
1.690612, 0.541797, 0.628927
1.638259, -0.222303, 0.979543
1.484004, -0.188242, 0.962382
1.358765, -0.235765, 0.807845
1.179853, -0.174066, 0.792927
1.418290, -0.048065, 0.651489
1.563005, 0.068699, 1.238780
1.456401, 0.087573, 0.728336
1.520369, 0.376676, 0.782162
2.078299, 0.631307, -0.425929
1.374001, 0.211343, 0.822797
1.389034, 0.247272, 0.809658
1.285961, 0.126381, 0.859470
2.295018, -0.815634, 1.914389
1.868176, -0.711071, 2.753706
2.309130, -0.639356, 1.942451
3.427646, -0.168678, 2.418733
1.934145, 0.437525, -0.940221
1.929843, 0.473242, -0.586670
0.811319, -0.089344, 1.537402
0.170686, -0.281224, 2.321045
1.587732, -0.091358, 2.492573
1.715596, -0.646308, 3.067033
3.321668, -0.253072, 2.469922
1.573796, -0.255991, 2.660857
1.784623, -0.069503, 2.328976
1.715025, -0.145753, 2.439536
2.111351, -0.143651, 2.489949
1.651642, 0.337747, 1.461254
2.385605, -0.451185, 2.417540
1.980466, 0.166224, 2.199739
1.656732, 0.288340, 1.895745
2.108838, -0.762382, 3.879164
1.501003, 0.117786, 1.163507
1.438420, -0.031867, 1.624238
1.594749, 0.116790, 1.206434
2.069322, -0.270564, 1.490303
2.007093, -0.176155, 2.624728
1.508133, -0.671679, 2.656240
1.528812, -0.032203, 2.327978
1.434372, -0.271528, 2.275573
1.668048, -0.105168, 2.230372
1.973549, -0.105225, 2.420509
1.924224, 0.021321, 2.320837
1.869605, -0.549739, 2.656518
0.242073, -0.233057, 2.181462
2.014279, 0.276804, 1.847661
1.756995, -0.083021, 2.343981
1.495102, -0.086381, 2.570192
2.187386, -0.129485, 2.442074
2.035182, 0.252035, 1.718513
1.400307, -0.139804, 2.249948
1.568189, -0.615620, 2.977569
1.367039, -0.297005, 2.192048
1.550591, -0.044715, 2.272312
1.649146, 0.281654, 1.884092
2.404188, -0.372677, 2.329914
1.128672, 0.544040, 1.120066
1.388468, 0.247440, 0.883739
1.047204, 0.322473, 1.248231
1.307440, 0.113899, 0.901039
0.870648, 0.363963, 1.118095
0.641062, 0.217372, 1.354396
1.745118, -0.419719, 3.260257
2.278184, 0.137758, 2.494977
1.434114, -0.365300, 2.267847
1.436793, -0.418032, 2.449204
1.491600, 0.349514, 1.734509
2.505776, -0.366890, 2.022007
2.052685, 0.102963, 1.832640
1.245245, 0.047007, 1.398148
1.578401, -0.563409, 2.972028
1.992892, 0.171185, 2.217432
2.039114, -0.124176, 1.633191
2.239854, -0.403564, 2.501070
2.059711, 0.058524, 1.811329
1.338481, -0.206646, 2.208534
2.055681, -0.077411, 2.407304
2.298181, -0.394191, 2.561420
2.442745, -0.139705, 2.081180
2.086213, -0.235849, 1.675113
2.040998, -0.524465, 2.605909
3.437834, -0.406333, 2.487102
2.042639, -0.653716, 2.612852
0.944501, 0.348281, 1.158237
1.276792, 0.467724, 0.821928
0.482375, -0.180022, 1.117753
0.392130, 0.093363, 1.045864
1.374079, 0.332711, 0.915566
1.338230, 0.577413, 1.059338
0.601137, 0.369341, 1.128701
0.682961, 0.344128, 1.211633
0.805023, 0.264696, 0.941107
0.890716, 0.368857, 1.119664
0.699804, 0.301700, 1.011700
0.544885, -0.077571, 2.474566
0.996715, 0.273983, 1.904483
1.227999, -0.237466, 2.026046
1.339139, -0.204664, 2.198776
1.370926, -0.283590, 2.168553
1.074241, -0.178423, 1.842200
1.027244, -0.035389, 1.798881
0.790022, -0.057237, 1.524336
0.930717, 0.005252, 2.401654
0.875254, 0.025521, 1.626386
0.355334, 0.026508, 2.295329
0.345831, -0.145978, 2.050262
1.535622, 0.103258, 0.764024
0.808888, 0.265474, 0.951227
1.136852, -0.283554, 2.040042
1.214728, 0.016769, 1.500942
1.642287, 0.412547, 1.513228
1.734535, 0.333950, 1.719995
1.572636, 0.060992, 1.254729
1.790486, 0.291669, 1.524263
2.301322, -0.568645, 2.430970
2.211875, -0.238726, 2.507045
1.752531, -0.674001, 3.824602
1.524975, -0.652930, 2.896604
3.310687, -0.401658, 2.798914
1.546232, -0.540073, 2.915874
1.346211, 0.107166, 0.844371
1.359336, 0.086347, 0.818121
1.439981, 0.251066, 0.839589
2.434402, 0.041880, 2.159105
2.090578, -0.409507, 2.912194
2.145893, 0.089698, 2.490527
2.086404, -0.048809, 2.469371
2.153384, 0.083644, 2.489967
2.571079, -0.425551, 2.491839
2.570021, -0.424811, 2.491391
2.204965, -0.068028, 2.755398
2.421940, -0.013639, 2.604760
1.997709, 0.175309, 1.606597
1.388043, 0.085697, 0.832212
0.528084, 0.253983, 1.269663
2.082783, -0.190203, 2.819822
1.871650, -0.208008, 3.121825
1.988515, -0.548880, 3.617092
1.644651, -0.112271, 2.232661
1.761799, -0.734996, 4.068174
2.543733, -0.569338, 2.294715
2.337885, -0.507898, 2.795689
2.504560, -0.008569, 2.245032
0.792568, -0.032685, 1.519614
2.728175, -0.256904, 2.195253
1.078922, -0.096860, 1.876033
1.126093, -0.428487, 2.540570
1.054929, -0.095619, 1.870057
1.137995, 0.310965, 1.329392
2.231008, -0.715147, 2.434656
0.750206, 0.234845, 0.943164
0.791359, 0.212015, 0.952069
1.025660, -0.431760, 2.849643
0.251823, -0.373950, 2.513352
1.126647, -0.124916, 1.962695
2.311470, -0.101022, 1.999525
1.526658, 0.129143, 0.730451
0.956957, 0.357862, 1.268170
2.337783, -0.267194, 1.966206
1.239696, 0.560130, 1.053657
1.379296, -0.087555, 0.773913
0.643488, 0.053807, 1.360658
2.206640, -0.334097, 2.486647
1.655840, -0.076836, 2.154687
1.830424, 0.013293, 2.378124
2.233834, 0.113583, 2.414159
1.892034, -0.021181, 2.313305
1.846464, -0.092927, 2.421666
2.212467, 0.104967, 2.398382
2.135621, -0.196269, 2.451898
2.030764, -0.105226, 2.835964
2.050677, -0.670543, 3.631722
2.179593, -0.138261, 2.438012
0.035191, -0.381217, 1.714025
0.501137, -0.320748, 1.630302
1.081253, -0.207740, 1.867072
1.059484, -0.133677, 1.856662
0.843786, -0.235557, 2.774192
1.062647, -0.219380, 1.833141
0.850972, -0.746335, 2.596017
1.830555, 0.013369, 2.378299
2.239442, -0.403834, 2.500102
1.657469, -0.109050, 2.235562
1.684075, -0.061033, 2.220454
0.469140, 0.088863, 2.391282
0.461004, 0.092271, 2.401367
1.463914, -0.806710, 2.559863
2.149314, -0.147671, 2.473211
2.602915, -0.079988, 2.319724
2.064660, 0.180663, 2.108984
1.956008, -0.594881, 2.760006
1.712978, -0.636171, 3.521393
0.307025, -0.180786, 2.403850
0.529435, -0.334863, 1.672969
0.890647, -0.082586, 1.888894
0.614992, -0.585543, 2.825235
1.350387, -0.361055, 2.236034
1.367732, -0.645413, 2.623324
0.204642, -0.106984, 1.944536
0.163208, -0.183175, 2.138177
-0.042073, 0.308156, 2.092864
0.309132, 0.112690, 1.755812
0.192264, 0.191388, 1.877520
0.180326, 0.198494, 1.892967
0.305238, 0.308719, 1.947047
0.742087, -0.080343, 1.650093
0.487319, 0.048216, 1.180185
0.624066, -0.010719, 1.316890
1.423270, -0.244318, 2.288875
1.373104, -0.298076, 2.195203
0.891267, -0.083386, 1.888456
0.648847, 0.082470, 1.323475
0.423718, 0.077731, 1.086855
0.649203, 0.082493, 1.328097
0.802876, 0.472239, 1.010873
2.274966, 0.178091, 2.141845
1.873572, 0.032014, 2.364717
2.760833, -0.668257, 2.011917
2.252448, -0.607276, 2.452569
2.330555, -0.490456, 2.419394
1.533425, -0.178716, 2.771477
1.566131, -0.489617, 2.998443
1.527195, -0.196110, 2.698161
0.835883, -0.447655, 2.989395
0.628843, -0.556010, 1.752294
0.063342, -0.404687, 2.266208
1.396970, -0.318193, 2.214675
1.480322, -0.212461, 2.578565
0.626708, 0.027898, 1.336072
0.421944, 0.053560, 1.131025
0.446874, 0.090186, 2.027361
0.805426, -0.128913, 1.551170
0.968923, 0.092912, 1.984765
3.364118, -0.418255, 2.831868
2.093703, -0.556789, 2.617489
2.461641, -0.071351, 2.196072
1.496423, -0.668048, 2.703010
1.834728, -0.612903, 3.866824
2.028866, -0.114246, 2.808216
1.776879, -0.135707, 2.475504
2.462047, 0.074106, 2.372397
1.811067, -0.094765, 2.446461
1.179453, -0.083371, 1.993212
2.145759, -0.148919, 2.465872
2.074319, 0.102272, 2.382356
2.020224, -0.648504, 3.593550
1.735364, 0.242362, 2.011498
1.553320, -0.481151, 2.856577
2.814114, -0.090758, 2.415841
1.785033, -0.047740, 2.185225
0.200192, -0.156429, 1.787356
-0.102574, -0.022141, 1.935219
1.081981, -0.255950, 1.902431
2.103792, -0.137711, 2.476066
0.207784, -0.384081, 2.182458
0.022058, 0.248337, 1.882450
0.591181, 0.025871, 1.278877
0.512411, 0.039789, 1.227946
2.096515, -0.052679, 2.380205
1.882876, -0.090729, 2.366741
2.117902, -0.144527, 2.800578
0.867999, -0.063575, 1.618420
1.855310, -0.084956, 2.426461
0.442687, -0.216031, 1.150475
1.192465, -0.074782, 2.042007
0.568840, 0.068979, 1.328764
0.546752, 0.025304, 1.224479
0.502557, 0.100902, 1.243062
0.405657, 0.141834, 1.233680
1.784071, -0.135869, 2.488944
2.102867, -0.110860, 2.436898
2.218390, -0.524419, 2.511102
2.060383, -0.103792, 2.872668
1.632073, -0.425453, 3.046071
1.764724, -0.138752, 2.451286
1.673201, -0.088341, 2.495152
2.281569, -0.518044, 2.473213
0.979474, 0.025554, 1.823956
0.623634, 0.046884, 1.398442
0.262339, -0.239204, 2.173276
1.073158, -0.100802, 1.853837
1.196233, -0.077408, 2.038444
1.020014, -0.125366, 1.929144
1.854534, -0.694213, 3.662018
2.040621, -0.089367, 2.387888
0.328202, 0.214442, 2.114646
1.370160, -0.637192, 2.602378
1.499277, -0.066467, 2.643720
1.258954, -0.577786, 2.792348
2.045635, -0.062194, 2.398303
2.298156, -0.605069, 2.448195
1.523214, -0.165926, 2.666983
1.918680, -0.579576, 2.748700
1.596640, -0.381259, 2.810311
1.818710, -0.276006, 3.064599
1.214499, -0.681301, 2.734298
1.591832, -0.122829, 2.670048
1.780782, -0.073158, 2.317047
0.696236, -0.824238, 2.951080
0.842982, -0.234072, 2.774209
0.459287, -0.031437, 1.110751
0.412185, -0.016087, 1.067987
0.399051, 0.188584, 1.144409
0.689887, 0.264969, 1.782720
1.127563, -0.123735, 1.954021
0.578757, 0.021211, 1.281315
0.503927, 0.029789, 1.202618
2.545120, -0.555983, 3.595034
1.538077, -0.166527, 2.624234
1.668101, -0.255695, 2.946859
1.554209, -0.127794, 2.575890
1.545742, -0.540386, 2.927665
1.693956, -0.410753, 3.120155
1.587777, -0.091795, 2.493852
1.547634, -0.541671, 2.931857
1.340348, -0.240664, 2.206974
1.579957, -0.039679, 2.496749
1.035916, -0.508324, 2.852380
0.860733, -0.176887, 2.801200
0.974698, -0.126644, 1.772043
1.530896, -0.100241, 2.536055
0.625596, 0.206779, 1.377593
0.797682, 0.213002, 1.624441
0.660794, 0.174070, 1.909370
0.502589, 0.183002, 1.202927
0.497846, 0.195938, 1.188587
0.974023, -0.125586, 1.775406
1.437706, -0.327796, 2.330658
0.855269, -0.740867, 2.594280
1.442567, -0.324553, 2.264140
0.838475, -0.038950, 1.598924
0.667544, 0.080832, 1.332911
0.634496, -0.074730, 1.289493
0.587968, 0.045676, 1.325768
0.791366, 0.024783, 1.554598
0.609629, -0.097685, 1.291906
0.534613, 0.173176, 2.006603
1.385996, -0.323630, 2.199721
2.869803, -0.347209, 2.913766
2.453813, -0.102755, 1.953692
1.202954, 0.037895, 1.442778
0.845988, -0.087840, 1.738463
0.563853, -0.011678, 1.294693
0.633185, -0.394391, 1.784070
0.544078, -0.207720, 1.214906
0.533367, -0.237045, 2.157194
0.545258, -0.575607, 1.791980
1.601072, -0.048670, 2.279105
1.429335, -0.648944, 2.655576
1.850118, -0.642695, 2.733502
2.096071, -0.092052, 2.933634
2.243860, -0.680964, 2.434738
1.393397, -0.312666, 2.206834
1.391410, -0.495808, 2.778767
1.391375, -0.310615, 2.197212
1.341795, -0.308481, 2.185893
1.026896, -0.034285, 1.798245
0.417563, -0.010690, 2.375675
0.634631, -0.413954, 1.797219
1.998968, 0.114844, 2.319203
1.683179, -0.058233, 2.240576
1.994574, -0.029063, 2.365063
1.471678, -0.188945, 2.661811
1.670994, -0.251551, 2.972717
1.472052, -0.187699, 2.659237
1.776770, -0.735390, 4.108400
1.524640, -0.165271, 2.693254
3.210598, -0.406282, 2.748091
1.522640, -0.697935, 2.721907
1.524894, -0.657992, 2.909130
2.107381, -0.488123, 2.705485
0.640159, -0.064877, 1.292493
0.545986, -0.293067, 1.318430
0.601515, -0.137194, 1.346243
0.627585, -0.019092, 1.653409
0.622904, -0.099054, 1.275231
0.557477, -0.019544, 1.257869
0.349651, -0.347201, 1.911205
0.862686, -0.091683, 1.680256
1.339394, -0.242917, 2.202489
0.846475, -0.086478, 1.602347
0.891450, 0.158689, 1.961261
0.831656, -0.060025, 1.665807
0.213069, -0.453553, 2.114067
0.520752, 0.019041, 1.345109
0.620251, 0.041423, 1.398809
0.645212, 0.043406, 1.343058
0.681624, 0.019744, 1.300501
0.558588, -0.009832, 1.298188
0.540840, -0.208891, 1.155288
0.512323, 0.030869, 1.168496
0.472068, 0.098789, 1.205999
0.516994, 0.062588, 1.195077
0.457213, -0.261326, 2.279069
0.555093, -0.069243, 1.209740
2.153033, -0.161934, 1.799310
2.043825, 0.022680, 1.743755
2.054678, -0.082419, 2.397467
1.803497, -0.050447, 2.088458
2.149525, -0.652001, 3.393065
1.819794, -0.095880, 2.453465
0.180645, -0.154855, 2.480625
0.079589, -0.051281, 2.076365
0.766439, -0.099543, 1.529727
1.913088, -0.427547, 3.693902
1.723032, -0.124705, 2.404625
2.013027, -0.628523, 3.359806
0.603772, 0.125805, 1.217851
0.828612, 0.457335, 1.027779
0.062074, -0.071204, 1.917070
0.402023, -0.107755, 2.420757
2.300620, 0.158608, 2.158761
0.579620, -0.013667, 1.781441
0.918522, 0.028325, 2.198068
0.630447, -0.071527, 1.286944
0.607952, -0.098749, 1.332665
0.851038, -0.015626, 1.741014
0.745516, -0.704355, 1.983976
0.628944, -0.478575, 1.820926
0.233237, -0.168342, 1.883030
0.877077, 0.025763, 1.628995
-0.064364, -0.552036, 1.719265
1.029815, -0.008976, 1.584066
0.637274, -0.064662, 1.292453
0.871062, 0.084971, 1.919870
0.673481, 0.010905, 1.406275
0.623990, 0.049256, 1.398991
0.907906, 0.042367, 1.991750
0.480188, 0.050228, 1.181258
0.638951, 0.082042, 1.338079
0.400366, 0.156197, 1.525967
0.640039, 0.080688, 1.331333
