0.244044, -0.370673, -0.537277
0.456833, -0.857233, -1.354302
0.455281, -0.912392, -1.467568
0.457244, -0.771970, -1.160300
-0.211844, -0.142786, -0.340209
-0.664516, -0.034519, -0.507358
-0.526344, -0.396452, -0.416038
0.614613, -0.327947, -0.333531
0.461402, -0.182925, -0.220491
0.379544, -0.195934, -0.088180
0.401371, -0.177095, -0.061005
0.539564, -0.236617, -0.455709
0.379830, -0.213273, -0.148099
0.406189, -0.119021, -0.078365
0.093596, -0.534485, -0.402397
0.597738, -0.264520, -0.314338
0.292609, -0.229405, -0.145062
0.367366, -0.388123, -0.145673
-0.015136, -0.174421, -0.515270
-0.007476, -0.335304, -0.531062
0.225825, -0.475164, -0.503209
0.413882, -0.250051, -0.125233
-0.250117, 0.012905, 0.328380
-0.236493, -0.108535, 0.404870
0.441131, -0.128965, -0.075824
0.401454, -0.516895, -0.356458
0.531508, -0.157073, 0.119743
0.514114, -0.153738, 0.154995
0.414849, -0.126981, -0.086568
-0.181849, -0.232478, -0.402363
0.044997, -0.201814, -0.461899
-0.279508, -0.250209, -0.570204
-0.184183, -0.222344, -0.444492
0.528686, -0.191250, 0.110770
-0.127786, -0.099177, -0.117998
-0.135236, -0.098687, -0.120326
0.613109, -0.246558, -0.259102
0.476954, -0.198832, -0.297270
0.414147, -0.130551, 0.035774
0.393043, -0.419825, -0.200132
0.082439, -0.462899, -0.752890
0.533374, -0.189999, -0.332183
0.422479, -0.249914, -0.133091
0.369636, -0.169537, -0.019341
0.365404, -0.192562, -0.069526
-0.314343, -0.295139, -0.395987
0.383888, -0.256824, -0.122084
0.443862, -0.103227, 0.009470
0.406320, -0.108864, -0.038446
-0.218773, -0.274436, -0.418258
-0.130941, -0.116996, -0.503729
0.404716, -0.234354, -0.186182
-0.185816, -0.916203, -1.595181
0.614652, -0.416413, -0.228469
0.360780, -0.412970, -0.376299
-0.477280, -0.355793, -0.173948
0.377552, -0.412782, -0.216095
0.532110, -0.183602, 0.090619
0.532379, -0.185586, -0.310640
0.006959, -0.266146, -0.512182
0.000498, -0.268007, -0.521109
-0.006571, -0.335303, -0.528836
-0.084226, -0.489285, -0.400142
-0.056140, -0.416306, -0.509648
0.020856, -0.185458, -0.469427
0.599989, -0.363888, -0.087032
0.594512, -0.212729, -0.364444
0.550910, -0.264243, -0.269628
0.369781, -0.266826, -0.174020
-0.200618, -0.293931, -0.476552
-0.180234, -0.304475, -0.476747
-0.177322, -0.176176, -0.422392
-0.024938, -0.396510, -0.471282
-0.114781, -0.198385, -0.435102
0.628798, -0.346226, -0.260040
0.537895, -0.222111, -0.423248
0.624685, -0.263423, -0.307979
0.481301, -0.187589, -0.309262
-0.656384, -0.278437, -0.713057
-0.347494, -0.340081, -0.396282
-0.353042, -0.225111, -0.457192
0.360964, -0.114273, -0.060055
0.499972, -0.871180, -1.292720
0.512974, -1.027365, -1.416054
-0.008364, -0.217699, -0.532474
0.380968, -0.193245, -0.083619
-0.098052, -0.309890, -0.431597
-0.407677, -0.439365, -0.651229
-0.103530, -0.335481, -0.450300
-0.212569, -0.246606, -0.425681
-0.316021, -0.411262, -0.434542
-0.080961, -0.152477, -0.438612
-0.203135, -0.434184, -0.443516
0.347250, -0.219072, -0.111935
0.395374, -0.369420, -0.117986
0.449292, -0.180634, -0.067391
-0.152642, -0.198745, -0.437289
0.354896, -0.410328, -0.182801
0.673528, -0.402048, -0.378153
0.512250, -0.277546, -0.311078
0.567667, -0.361531, -0.442952
0.083877, -0.503486, -0.463915
0.418985, -0.947502, -1.289993
0.421912, -0.344120, -0.180319
-0.241447, -0.133369, -0.322722
0.416444, -0.121554, -0.077908
-0.241656, -0.107250, -0.305183
0.537105, -0.192931, 0.076931
0.374391, -0.433166, -0.328643
0.480079, -0.186825, -0.290123
-0.186787, -0.123744, -0.359862
-0.250441, -0.191499, -0.446171
-0.276280, -0.086367, -0.338381
0.400994, -0.306635, -0.206094
0.428046, -0.224205, -0.147960
0.418809, -0.165667, -0.067037
0.479668, -0.221163, -0.373466
0.530560, -0.159891, 0.113824
-0.034749, -0.300988, -0.434162
0.469045, -0.147910, -0.212002
0.415578, -0.178898, -0.058819
0.622364, -0.416480, -0.251492
0.363233, -0.288238, -0.248861
-0.004120, -0.173640, -0.541116
-0.335588, -0.222052, -0.364577
0.003748, -0.395833, -0.481074
-0.021875, -0.272423, -0.510825
-0.379441, -0.294307, -0.659054
-0.231823, -0.226663, -0.482839
0.368777, -0.280739, -0.154212
-0.226812, -0.389275, -0.369116
-0.072273, -0.151426, -0.431722
0.375415, -0.284548, -0.180644
0.410271, -0.377699, -0.108433
0.363160, -0.143225, -0.240288
0.601549, -0.336790, -0.139884
0.419733, -0.158165, -0.061211
-0.142327, -0.108244, -0.354087
-0.341227, -0.384163, -0.342162
-0.416618, -0.306746, -0.266492
-1.005258, -0.223423, 0.616867
-0.909673, -0.154619, 0.486733
-0.200120, 0.011049, 0.034678
-0.266877, -0.058174, -0.219103
-0.512801, -0.148042, -0.469909
-0.503585, -0.333889, -0.431330
-0.099029, -0.443908, -0.563220
-0.321011, -0.254007, -0.342723
-0.248571, -0.238699, -0.303972
-0.209216, -0.143685, -0.338304
-0.006482, -0.408300, -0.500428
-0.091506, -0.211878, -0.514911
-0.117074, -0.173308, -0.347616
-0.016145, -0.179468, -0.513942
-0.144903, -0.476158, -0.447549
-0.198738, -0.259174, -0.425390
0.215385, -0.887074, -1.426951
0.194729, -0.494066, -0.531039
0.377629, -0.168666, -0.010422
-0.040049, -0.370212, -0.509770
-0.156291, -0.222363, -0.459490
-0.305911, -0.352454, -0.276152
0.395708, -0.558533, -0.410367
0.357174, -0.204151, -0.095358
0.030845, -0.166751, -0.443694
0.080120, -0.506523, -0.470663
-0.254389, -0.326372, -0.543421
0.374104, -0.256488, -0.156046
0.408430, -0.140460, 0.020769
0.132858, -0.467554, -0.364431
0.560156, -0.291881, -0.252821
-0.146042, -0.177059, -0.423585
-0.357629, -0.262689, -0.549112
0.574520, -0.326141, -0.310022
0.587718, -0.272030, -0.244737
0.419673, -0.163637, -0.059577
-0.054470, -0.311307, -0.515630
-0.345338, -0.373512, -0.315913
-0.173006, -0.099678, -0.316933
0.519096, -0.275625, -0.354889
0.465175, -0.528727, -0.349900
0.484435, -0.167336, -0.221226
0.502866, -0.325642, -0.235046
0.419454, -0.120225, -0.065755
0.374156, -0.275368, -0.202680
-0.073738, -0.208546, -0.493074
-0.472878, -0.274474, -0.220164
-0.251708, -0.129429, -0.405999
-0.355659, -0.226280, -0.377941
-0.081878, -0.111246, -0.296942
-0.294907, -0.216112, 0.047982
-1.159964, -0.217088, 0.589566
-0.335926, 0.053274, 0.260249
-0.107565, -0.170486, 0.011425
-0.171246, -0.136000, -0.426214
-0.219598, -0.086754, -0.306576
-0.270093, -0.219572, -0.310117
-0.571896, -0.407074, -0.471421
-0.231572, -0.098056, -0.177000
-0.458544, -0.353200, -0.188025
-0.494301, -0.364375, -0.191288
-0.450828, -0.217244, -0.388512
-0.282560, -0.439552, -0.520959
-0.187380, -0.180900, -0.396958
-0.206859, -0.226706, -0.466507
-0.181951, -0.261336, -0.883119
-0.724598, -0.497431, -0.119000
-0.788056, -0.519081, -0.125084
-0.725671, -0.240852, -0.144943
0.204038, -0.107687, 0.009037
-1.802259, -0.557701, -0.989957
-0.201398, -0.090338, -0.303822
-0.534721, 0.038956, -0.034157
-0.512195, 0.116122, 0.258628
-0.550699, 0.086856, 0.268213
-0.473902, 0.141626, 0.228094
-0.116247, -0.097816, -0.278914
-0.210652, -0.132590, -0.432518
-0.169231, -0.128936, -0.330295
-0.226079, -0.458012, -0.438462
-0.026526, -0.107429, -0.255018
-1.457062, -0.499582, -0.417484
-0.274305, -0.120649, -0.241649
-0.241304, -0.131786, -0.229736
0.267474, -0.093873, 0.007969
-0.498757, -0.468578, -0.612199
-0.216353, -0.132701, -0.439437
0.058766, -0.531221, -0.451564
-0.096261, -0.496816, -0.410707
-0.221087, -0.022387, -0.107240
-0.054347, -0.076060, -0.201074
-0.277227, -0.274680, -0.378657
-0.512752, -0.336640, -0.431993
-0.172861, -0.150565, -0.323730
-0.098759, -0.334210, -0.446388
-0.200010, -0.226084, -0.506054
-0.033770, -0.552298, -0.499592
-0.282604, -0.283124, -0.396353
0.073556, -0.521186, -0.442583
-0.215172, -0.451287, -0.430235
-0.101146, -0.499091, -0.414340
-0.216232, -0.190954, -0.420401
-0.167838, -0.323362, -0.457182
0.400011, -0.305961, -0.207187
-2.327825, -0.687404, -0.235244
-0.112491, -0.113814, -0.059100
-0.175360, -0.116868, -0.130045
-0.695148, -0.289005, -0.248093
-0.498636, -0.100956, -0.458654
-0.403080, -0.414399, -0.456403
0.420627, -0.915976, -1.231716
-0.242530, -0.315743, -0.441812
0.564550, -0.261282, -0.283841
0.469014, -0.884044, -1.244607
0.468488, -0.854890, -1.219949
0.643011, -0.206027, -0.289978
-0.453160, -0.032898, 0.079351
-0.405536, -0.210893, -0.475895
-0.094601, -0.093415, -0.021731
-0.360380, -0.349500, -0.173414
-0.522488, -0.230422, -0.551794
-0.979601, 0.151331, 0.209748
0.209178, -0.122871, 0.014602
-0.450001, -0.283563, -0.367504
-0.371564, -0.322168, -0.147483
-0.470051, -0.327182, -0.452668
-0.165622, -0.135763, -0.421152
-0.221300, -0.442170, -0.458655
-0.481311, -0.351871, -0.514410
0.355778, -0.427136, -0.218625
0.349362, -0.257750, -0.164296
0.532534, -0.405682, -0.501316
0.573520, -0.329116, -0.327817
-0.233904, -0.134534, -0.325872
-0.227412, -0.131537, -0.363780
-0.339504, -0.339541, -0.223076
-0.172577, -0.484230, -0.462601
-0.123019, -0.210572, -0.438517
-0.300264, -0.298185, -0.514555
-0.174743, -0.148569, -0.423187
0.097286, -0.494662, -0.431296
0.394226, -0.420627, -0.228076
0.360677, -0.286130, -0.214250
-0.323106, -0.340230, -0.237366
-0.479578, -0.317074, 0.031974
-0.420862, -0.042984, -0.143799
-0.184604, -0.081741, -0.176882
-0.187853, -0.069224, -0.146175
-0.170120, -0.048727, -0.189118
-0.575112, -0.354382, -0.276737
-0.682682, -0.383566, -0.578844
-0.402147, -0.309631, -0.468691
-0.199049, -0.059311, -0.115018
-0.084488, -0.050939, -0.143842
-0.315456, -0.237048, -0.592316
-0.620274, 0.068143, 0.263408
-0.308930, -0.234951, -0.404392
-0.213995, -0.139680, -0.386944
-0.842559, -0.119814, -0.244322
-0.873612, -0.545892, -0.134931
-0.448598, -0.351276, 0.038207
-0.834881, -0.287321, 0.269538
-0.580475, -0.358128, 0.171099
-0.177874, -0.116177, -0.225866
-0.033459, -0.102486, -0.244192
-0.151233, -0.112148, -0.225281
-0.193004, -0.107285, -0.358494
-0.499205, -0.366760, -0.195609
0.010869, -0.171270, 0.018128
-1.117340, -0.567800, 0.055478
-0.083519, -0.082504, -0.140139
-0.098181, -0.117503, -0.066404
-0.390911, -0.157296, -0.355621
-0.154769, -0.107008, -0.331461
-0.173579, -0.461771, -0.396673
-0.298082, -0.135167, -0.439871
-0.452902, -0.233676, -0.209882
-0.304042, -0.049988, -0.142699
-0.173299, -0.273963, 0.033678
-0.324721, -0.021560, -0.161347
-0.136283, -0.117936, -0.239626
-0.200340, -0.128352, -0.295539
-0.409186, 0.104645, 0.225026
-0.427237, 0.022393, -0.087080
-0.625431, 0.042427, 0.126256
0.014767, -0.066342, -0.017881
0.018139, -0.071528, -0.017180
-2.678471, -0.650815, 0.231143
-0.568468, -0.100350, -0.288619
-0.460785, -0.380830, -0.019319
-0.044023, -0.059211, -0.141376
-0.131983, -0.106074, -0.316218
-0.456075, 0.101607, 0.193877
0.296576, -0.107028, 0.016062
-0.548453, 0.020884, 0.266731
-0.477229, 0.049757, 0.244337
-0.440445, 0.066276, 0.234496
0.123636, -0.083348, -0.005910
-0.131522, -0.112386, -0.216901
-0.081660, -0.080606, -0.208494
-0.072200, -0.082844, -0.137251
-0.524280, 0.027693, 0.115530
-0.069208, -0.114973, -0.304878
-0.171531, -0.136426, -0.426486
-0.229647, -0.309761, -0.432729
-0.161667, -0.130596, -0.417372
-0.422152, -0.320322, -0.038783
-0.083340, -0.051152, -0.143211
-0.100090, -0.064652, -0.222589
-0.064938, -0.056742, -0.167202
-0.161563, -0.231568, -0.026561
-0.002500, -0.238920, -0.482330
-0.213119, -0.077963, -0.116509
-0.118825, -0.030607, -0.130260
-0.390425, -0.310631, -0.037270
-0.385539, -0.330689, -0.163337
-0.132776, -0.094798, -0.226858
-0.064966, -0.076270, -0.141431
-0.342568, -0.314611, -0.142839
-0.613818, 0.206036, 0.454936
-0.357389, -0.317787, -0.145684
-0.169983, -0.118865, -0.228479
-0.075804, -0.051353, -0.140076
-0.128921, -0.090569, -0.187967
-0.407609, -0.212501, -0.482898
-0.624842, 0.053907, 0.281299
-0.667869, -0.202761, 0.411634
-1.265947, 0.160390, 0.613175
-0.159257, -0.048060, -0.174198
-0.216901, -0.143175, -0.349379
-0.459403, -0.291713, -0.189185
-0.426039, -0.184876, -0.517158
-0.599834, -0.354576, 0.036395
-1.347304, 0.267919, 0.272211
-0.439095, 0.005779, 0.235168
-0.545658, 0.128047, 0.230288
-0.174793, -0.135315, -0.300645
-1.092920, -0.344514, -0.386761
-1.009478, -0.416234, -0.326061
-0.205279, -0.194098, -0.386621
-1.137043, -0.233668, 0.400957
-0.298455, -0.351573, -0.274689
-0.397721, -0.325766, -0.462263
-0.836974, -0.400306, -0.441867
-0.364786, -0.133058, -0.113981
-0.586217, -0.201039, -0.360566
-0.559359, -0.387640, -0.227435
-0.265726, -0.122452, -0.270724
-0.206495, -0.087377, -0.301324
-0.080454, -0.056829, -0.145582
-0.307562, -0.107054, -0.338463
-0.209513, -0.238423, -0.402752
-0.277435, 0.006492, -0.014243
-0.200511, -0.452372, -0.432009
-0.213208, -0.135285, -0.317158
-0.115554, -0.112076, -0.210191
-0.076050, -0.112110, -0.298854
-0.126862, -0.126110, -0.321215
-0.296588, -0.401435, -0.424102
-0.167072, -0.308342, -0.503635
-0.203647, -0.096320, -0.324681
-0.502055, -0.332840, -0.425184
-0.313824, -0.379814, -0.396291
-0.205389, -0.104774, -0.104991
0.059727, -0.161268, 0.031702
-0.210264, -0.105822, -0.107570
-0.890365, 0.254815, 0.313207
-0.765105, 0.217121, 0.282072
-0.568123, 0.056131, 0.117264
-1.172010, -0.214960, 0.749463
0.036669, -0.167710, 0.014765
-0.509175, 0.075041, 0.030465
0.302887, -0.096025, 0.011311
-3.021023, -0.093987, -0.233271
-0.051787, -0.076838, -0.136186
0.089530, -0.155922, 0.014991
-0.444976, 0.115785, 0.153247
-0.475087, 0.052093, 0.102639
0.299618, -0.096348, 0.011191
-0.347222, -0.250463, -0.185432
-0.363893, 0.027684, 0.247285
-0.734407, -0.257543, 0.302793
-0.043091, -0.189508, 0.016518
-0.141693, -0.081767, -0.203270
-0.479617, -0.331338, 0.153433
-0.761514, 0.132203, 0.326429
-0.585422, 0.093405, 0.249737
-1.964053, -0.337023, -0.069758
-0.200518, -0.023468, -0.139738
-0.149076, -0.078067, -0.130647
-0.146515, -0.105033, -0.234328
-0.745131, -0.210389, 0.467883
0.170132, -0.092016, -0.000370
-0.772267, 0.046578, 0.076805
-0.536586, 0.218194, 0.397545
-0.002272, -0.121704, 0.203350
-0.507841, 0.138813, 0.389962
-0.428810, 0.120496, 0.311252
-0.162929, -0.038537, -0.089993
-0.804824, -0.384073, -0.577938
0.227702, -0.112173, 0.011731
-0.210309, -0.106158, 0.380997
-0.932124, -0.191795, 0.511131
-0.109547, -0.065845, -0.127001
-0.453892, -0.315693, 0.033843
0.323630, -0.104712, 0.017762
-0.407795, 0.052952, 0.043874
0.246036, -0.093144, 0.006680
0.251029, -0.093106, 0.007045
-0.528390, 0.118592, 0.127641
-0.509284, 0.061814, 0.136813
-0.469687, 0.068796, 0.105746
-0.537471, 0.132431, 0.295085
0.109884, -0.155858, 0.016518
-0.580272, 0.184026, 0.297852
0.081473, -0.078708, -0.010491
-0.686716, -0.372176, -0.066575
0.025976, -0.031719, 0.019231
-0.294916, 0.135629, 0.217003
0.232559, -0.100817, 0.052029
-0.370879, 0.043731, 0.044475
-0.179250, -0.247862, 0.025286
0.121656, -0.147309, 0.014884
-1.284545, -0.195764, 0.466055
-0.975763, -0.210246, 0.259557
-1.629721, 0.040912, 0.868683
0.065909, -0.075070, -0.013101
-0.012432, -0.111839, 0.207949
-0.446711, 0.151578, 0.213639
-0.658033, 0.096964, 0.360034
-0.891181, 0.066002, 0.379314
-1.448844, -0.187373, 0.869820
0.058857, -0.061572, -0.000621
-0.519609, 0.043814, -0.176893
-0.442234, 0.176174, 0.346366
-0.482144, 0.051250, 0.245297
-0.611647, 0.069421, 0.257275
-0.175627, 0.011090, 0.054869
0.264980, -0.102080, 0.010508
-0.594568, 0.060938, 0.280175
-0.586418, 0.166812, 0.233576
-1.050799, -0.384035, 0.178214
-0.144647, 0.099238, 0.227116
-0.644170, 0.024924, 0.556208
-0.567641, 0.135094, 0.237216
0.195456, -0.084447, -0.000231
-0.262912, -0.102642, -0.121493
-0.189721, -0.066492, -0.148607
-0.709493, -0.249873, 0.312108
-0.601333, 0.115007, 0.483081
0.030158, -0.169974, 0.015076
-0.331159, -0.018580, -0.157389
-0.192539, -0.026158, -0.099223
-0.493653, 0.014666, 0.280151
-0.266001, -0.234672, -0.043036
-1.222442, -0.218133, 0.630068
-0.950982, -0.128685, 0.535133
-0.536534, 0.067030, 0.141013
-0.424133, 0.118740, 0.307029
-0.230516, 0.019588, 0.024113
-0.969087, -0.237344, 0.542935
-0.225317, 0.017149, 0.030063
-0.187615, -0.201459, 0.041055
-0.244258, -0.077941, -0.124216
-0.841525, -0.187649, 0.601542
-2.106283, 0.089417, 1.190432
-2.020928, -0.147079, 1.274335
-1.456561, -0.128249, 0.720464
-0.676619, 0.144478, 0.328456
-0.245228, -0.079964, 0.405482
-0.514001, 0.128776, 0.247745
-0.395679, 0.085995, 0.483736
-0.851032, -0.231693, 0.591655
-0.504403, 0.119650, 0.222118
-1.101813, -0.231550, 0.662531
-0.910509, 0.181889, 0.198782
-1.115412, -0.068914, 0.757576
-1.867775, 0.344310, 0.554859
-0.709622, 0.233548, 0.359776
-1.383226, 0.332779, 0.246919
-2.176408, 0.450373, 0.482407
-2.364398, 0.111620, 0.799419
-1.403939, 0.222660, 0.212180
-0.548220, 0.182370, 0.325871
-1.628945, -0.156361, 0.933306
-1.242708, -0.170604, 0.620616
-1.541251, -0.247081, 0.594102
-1.164733, 0.017061, 0.446340
-1.375105, -0.176180, 0.581467
-0.084521, -0.218240, 0.047415
0.306700, -0.095888, 0.011714
-0.424672, 0.165127, 0.239590
-0.000353, -0.200503, 0.042851
-0.935670, -0.287618, 0.357780
-0.159143, 0.022465, 0.308607
0.245414, -0.105244, 0.010958
-1.217814, -0.071361, 0.821045
-0.790516, 0.053383, 0.437863
-0.289365, 0.108296, 0.317589
-0.346203, 0.181943, 0.319301
-1.057793, -0.205627, 0.556819
-0.435840, 0.151427, 0.305139
-0.191656, 0.016906, 0.059347
-1.034090, -0.214147, 0.273000
-1.211646, 0.024103, 0.454829
-1.166130, 0.004639, 0.431751
-1.319684, -0.067076, 0.523548
-0.440773, 0.106699, 0.260179
-0.477112, 0.201684, 0.299547
-0.530251, -0.318921, 0.075097
-0.231825, -0.111139, 0.400149
-0.426421, 0.152606, 0.300213
-1.003862, 0.173303, 0.352599
-0.194300, 0.031397, 0.337382
-1.125094, 0.197428, 0.387418
-1.048541, 0.180506, 0.567284
-0.445186, 0.134740, 0.226845
-0.104512, 0.062974, 0.214933
-0.457116, 0.110742, 0.299813
-0.020634, -0.114698, 0.212533
-0.580625, 0.117438, 0.474287
-0.227650, -0.111527, 0.399268
-1.108540, -0.161935, 0.691096
-0.492727, 0.159838, 0.280952
-1.468518, 0.074969, 0.521209
-1.130358, 0.178079, 0.296247
-0.715958, -0.166033, 0.480576
-1.786155, -0.019305, 0.886304
-0.647432, 0.217379, 0.360972
-1.341778, -0.065620, 0.821634
-0.726656, 0.264466, 0.444535
-1.247885, -0.222866, 0.639226
-1.559842, -0.025474, 0.785957
-1.526058, 0.039013, 0.789346
-1.221791, -0.044818, 0.533899
-0.481595, 0.169615, 0.322228
-0.713338, 0.093501, 0.398903
-2.429235, -0.131318, 1.216679
-0.929422, -0.204309, 0.417945
-1.168694, -0.055917, 0.482050
-0.461068, 0.074960, 0.278575
-1.015410, 0.287871, 0.513725
-1.368991, -0.068134, 0.838048
-1.479621, -0.224727, 0.843414
-0.455709, 0.142556, 0.407868
-1.155319, -0.253055, 0.816387
-0.320512, 0.030829, 0.457622
-1.234799, -0.284291, 0.632967
-2.591209, -0.048475, 0.923857
-1.444306, -0.148120, 0.672799
-1.794807, -0.109673, 1.203209
-1.031624, -0.224705, 0.629936
-0.168254, 0.025787, 0.315628
-1.252506, -0.191816, 0.721986
-0.526868, 0.139652, 0.424048
-1.173826, -0.267933, 0.518505
-1.377302, -0.199281, 0.783354
-1.110124, -0.253931, 0.604179
-0.474131, 0.142624, 0.236412
0.043129, -0.005928, 0.146811
-1.737272, 0.052660, 0.879474
-1.094361, -0.291812, 0.627333
-1.475886, -0.050115, 0.643844
-1.469258, -0.212329, 0.508453
-1.566424, -0.276554, 0.628903
-0.821864, -0.276611, 0.440516
-0.854859, -0.222794, 0.504010
-0.657386, 0.039416, 0.347594
-1.604921, -0.072542, 0.835354
-0.986689, -0.198065, 0.530648
-2.493154, -0.293968, 0.919898
-1.792187, 0.057710, 1.048013
-0.297914, -0.061605, 0.363320
-0.514661, 0.202514, 0.448408
-1.103222, -0.137627, 0.683892
-0.931064, -0.175165, 0.580488
-1.115717, -0.236928, 0.667664
-1.548356, -0.024650, 0.781817
-0.647774, 0.036692, 0.342038
-1.458256, -0.060450, 0.945626
0.545453, -0.103242, 0.502149
0.461173, -0.029756, 0.645278
0.498014, 0.002654, 0.461731
0.473274, -0.048799, 0.625245
0.533195, -0.085093, 0.595006
0.516117, 0.085981, 0.548310
0.478742, -0.029276, 0.599475
0.565202, -0.134322, 0.444347
0.558764, -0.089676, 0.452336
0.568257, -0.139355, 0.450528
0.572162, -0.154481, 0.433370
0.468751, -0.035926, 0.625978
0.440747, -0.040718, 0.602397
0.562909, -0.119428, 0.572122
0.482558, -0.029084, 0.601139
0.466852, -0.028816, 0.622411
0.493328, -0.024188, 0.506765
0.502549, 0.008818, 0.457638
0.551298, -0.067427, 0.516485
0.562773, -0.087131, 0.487525
0.463659, -0.030661, 0.646616
0.563488, -0.094008, 0.459003
0.543505, -0.051945, 0.544915
0.551871, -0.076084, 0.490236
0.555587, -0.078464, 0.487937
0.563079, -0.091610, 0.466093
0.561553, -0.127332, 0.462144
0.547338, -0.112265, 0.501055
0.566237, -0.142668, 0.463892
0.540856, -0.099763, 0.506294
0.524114, -0.034701, 0.508217
0.544224, -0.136861, 0.442239
0.568528, -0.140012, 0.430062
0.428440, 0.009102, 0.459230
0.475496, -0.005228, 0.583033
0.461833, -0.027401, 0.593738
0.481693, -0.048622, 0.595969
0.666893, 0.059410, 0.634752
0.631885, -0.001982, 0.644628
0.480498, -0.017665, 0.581665
0.481350, -0.005885, 0.578179
0.474196, -0.055117, 0.593890
0.553486, -0.109815, 0.559440
0.550215, 0.051749, 0.631870
0.476133, -0.060674, 0.596075
0.509415, -0.049420, 0.487528
0.567668, -0.143196, 0.463273
0.473424, -0.048607, 0.591190
0.546889, -0.109858, 0.495298
0.558603, -0.097303, 0.487518
0.545966, -0.084307, 0.495926
0.530013, -0.036687, 0.508268
0.567619, -0.147021, 0.451856
0.569787, -0.149302, 0.445786
0.549864, -0.151042, 0.486646
0.546081, -0.112771, 0.497084
0.563704, -0.091713, 0.465768
0.557175, -0.085148, 0.465914
0.475157, 0.049789, 0.593218
0.547430, -0.070182, 0.491547
0.568822, -0.132908, 0.490905
0.546872, -0.095429, 0.582786
0.474563, -0.048057, 0.598911
0.476292, -0.031082, 0.625793
0.553875, -0.110628, 0.581983
0.489184, -0.068067, 0.603871
0.471752, -0.036676, 0.601061
0.540107, -0.104668, 0.563436
0.556967, -0.121301, 0.454509
0.489027, 0.041196, 0.610761
0.481909, 0.045044, 0.559453
0.490581, 0.035338, 0.575661
0.476478, 0.002335, 0.615830
0.542593, 0.063622, 0.622536
0.542322, -0.048720, 0.581827
0.801638, 0.031877, 0.655130
0.475892, 0.044880, 0.614319
0.486091, 0.002942, 0.567808
0.567765, -0.159639, 0.448349
0.541692, 0.063887, 0.622059
0.468862, -0.006490, 0.615027
0.544971, -0.054366, 0.536992
0.557273, -0.040990, 0.565117
0.535468, -0.023073, 0.551188
0.542713, -0.050760, 0.583196
0.340593, -0.040162, 0.701286
0.480971, 0.049657, 0.594774
0.579681, 0.039195, 0.614790
0.463980, 0.019327, 0.627396
0.545992, -0.111822, 0.583195
0.472843, 0.045104, 0.613077
0.540410, -0.082003, 0.585483
0.488517, -0.021933, 0.584887
0.482260, -0.018233, 0.582462
0.484497, -0.001365, 0.568749
0.253911, 0.037447, 0.494187
0.495516, 0.038040, 0.555259
0.530417, -0.079624, 0.581927
0.530362, -0.068581, 0.595634
0.540264, -0.043814, 0.580387
0.486045, -0.000172, 0.587246
0.540187, -0.105066, 0.579586
0.543400, -0.054241, 0.578767
0.553181, -0.113154, 0.564982
0.475382, -0.038245, 0.603486
0.477373, 0.002380, 0.611902
0.555698, -0.083392, 0.469413
0.501206, -0.008650, 0.463231
0.327591, 0.034108, 0.663103
0.569380, 0.065314, 0.634022
0.304162, 0.036220, 0.539281
0.537811, -0.078177, 0.588677
0.470310, -0.004289, 0.626027
0.553245, -0.108693, 0.518135
0.555661, -0.060823, 0.550358
0.553596, -0.114825, 0.538978
0.458485, 0.022248, 0.505164
0.453045, 0.026040, 0.645354
0.462107, 0.017892, 0.616904
0.462040, -0.032743, 0.638286
0.569628, -0.152337, 0.434258
0.499366, 0.002480, 0.461698
0.568150, -0.079266, 0.411868
0.549531, -0.107504, 0.508034
0.555376, -0.071716, 0.508587
0.565545, -0.096491, 0.451770
0.568896, -0.134888, 0.448854
0.534976, -0.040690, 0.597787
0.456822, -0.041437, 0.594007
0.541443, -0.047479, 0.570233
0.470983, -0.064681, 0.596274
0.490824, 0.035584, 0.556630
0.482031, -0.016753, 0.593927
0.464905, -0.014409, 0.634612
0.481394, 0.002082, 0.647778
0.466281, -0.010497, 0.632763
0.542154, -0.048121, 0.570354
0.540035, -0.051334, 0.587214
0.548568, -0.068360, 0.495596
0.570667, -0.143838, 0.438603
0.567656, -0.100267, 0.429271
0.469583, -0.045134, 0.607706
0.503627, -0.051017, 0.607926
0.567969, -0.104342, 0.430359
0.600980, -0.162173, 0.511920
0.646985, -0.114034, 0.409189
0.548427, -0.108049, 0.575210
0.566353, -0.092938, 0.465431
0.455061, -0.051513, 0.613503
0.504460, -0.009233, 0.596390
0.468049, 0.005797, 0.605483
0.474518, -0.000536, 0.589608
0.469272, -0.044823, 0.608229
0.527563, -0.033766, 0.581358
0.475035, -0.014507, 0.578483
0.553999, -0.061044, 0.544470
0.548729, -0.100326, 0.533935
0.509507, -0.034013, 0.508172
0.457231, -0.037104, 0.598389
0.478969, -0.027383, 0.600022
0.563445, -0.092900, 0.532286
0.570801, -0.087524, 0.410993
0.475215, -0.053886, 0.609351
0.553819, -0.030290, 0.536479
0.558793, -0.087226, 0.487189
0.554701, -0.117339, 0.463500
0.515788, -0.043118, 0.487591
0.548032, -0.131818, 0.465790
0.482173, -0.019784, 0.581793
0.567291, -0.147317, 0.445140
0.556707, -0.127558, 0.449457
0.466631, 0.005524, 0.626180
0.550870, -0.121007, 0.558669
0.540644, -0.046734, 0.587003
0.534707, -0.136006, 0.623395
0.469434, 0.023037, 0.634486
0.490374, -0.011513, 0.543794
0.516122, -0.048606, 0.490498
0.567325, -0.084668, 0.415830
0.447455, -0.030706, 0.590106
0.548137, -0.108221, 0.564893
0.513371, -0.121931, 0.615115
0.472458, -0.064919, 0.597198
0.479741, -0.036547, 0.605156
0.540929, -0.084359, 0.589341
0.515647, -0.077787, 0.590878
0.541647, -0.050912, 0.583960
0.490602, 0.048778, 0.593709
0.481037, -0.012401, 0.580613
0.464687, -0.037808, 0.623881
0.568138, -0.101811, 0.437536
0.517080, -0.044826, 0.497953
0.532478, -0.024535, 0.526398
0.483106, -0.011703, 0.580726
0.469457, -0.047204, 0.590042
0.469077, -0.035572, 0.600137
0.470279, -0.048052, 0.589618
0.481852, -0.011052, 0.579386
0.482745, 0.000167, 0.575457
0.481879, -0.010814, 0.578751
0.532788, -0.111927, 0.580817
0.468326, -0.047067, 0.626775
0.551340, -0.113362, 0.564167
0.566983, -0.139829, 0.548510
0.473657, -0.047258, 0.608399
0.498006, -0.032523, 0.471300
0.375851, 0.005978, 0.508253
0.573394, -0.156280, 0.480814
0.475543, 0.011934, 0.475777
0.553971, -0.042054, 0.514339
0.573542, -0.161461, 0.514021
0.516488, -0.047462, 0.498902
0.538389, -0.077734, 0.595836
0.571022, -0.143406, 0.452457
0.465932, -0.022579, 0.635792
0.485222, 0.026036, 0.559653
0.486993, -0.005670, 0.562986
-0.037360, -0.430607, -0.512450
-0.049137, -0.226191, -0.506483
0.593683, -0.148544, 0.339037
0.586914, -0.138841, 0.344288
0.582212, -0.182322, 0.319367
0.554533, -0.076856, 0.418389
0.555538, -0.087527, 0.601437
0.557133, -0.086961, 0.459222
0.544360, -0.060400, 0.565249
0.560208, -0.037917, 0.570438
0.502259, 0.002178, 0.462280
0.546004, -0.070962, 0.496120
0.590192, -0.129926, 0.413613
0.539607, -0.046216, 0.586976
0.568435, -0.140905, 0.451389
0.566229, -0.107029, 0.415341
0.576801, -0.113441, 0.416080
0.534369, -0.104312, 0.359701
0.587366, -0.192458, 0.318250
0.583473, -0.185701, 0.334800
0.497393, -0.046239, 0.433428
0.579013, -0.189042, 0.274630
0.512705, -0.080839, 0.339800
0.478835, -0.016216, 0.580733
0.543293, -0.188132, 0.167790
0.578920, -0.187611, 0.311178
0.566585, -0.092795, 0.468174
0.552425, -0.114327, 0.538539
0.534886, -0.086275, 0.595297
0.470435, -0.016248, 0.507968
0.558613, -0.123530, 0.469237
0.474068, -0.018496, 0.619511
0.496858, 0.002762, 0.605867
0.546859, -0.061255, 0.565333
0.482225, -0.006403, 0.577536
0.547112, -0.069062, 0.495194
0.525784, -0.040544, 0.582738
0.490626, 0.045881, 0.561035
0.485770, -0.007390, 0.577945
0.518998, -0.087570, 0.333190
0.511335, -0.072291, 0.376190
0.538633, -0.082801, 0.417264
0.547507, -0.126941, 0.552739
0.545060, -0.129134, 0.581569
0.547818, -0.134490, 0.550401
0.525051, -0.033389, 0.581159
0.667226, -0.054821, 0.549965
0.553421, -0.129648, 0.554793
0.546153, -0.061085, 0.565751
0.539722, -0.030576, 0.522059
0.450641, 0.010633, 0.684291
0.545605, -0.058855, 0.563252
0.549832, -0.071369, 0.491271
0.537915, -0.049751, 0.299888
0.572230, -0.546224, -0.310080
0.541733, -0.068244, 0.096795
0.656347, -0.217060, -0.340570
0.498976, -0.020040, 0.467314
0.551908, -0.116168, 0.461997
0.491065, -0.017144, 0.530683
0.527765, -0.122648, -0.092508
0.380271, -0.117018, -0.107605
-0.376470, -0.327400, -0.329922
0.443889, -0.032658, 0.394342
0.515187, -0.019400, 0.362889
0.511567, -0.056157, 0.372781
0.518651, -0.075657, 0.386062
0.525441, -0.121741, 0.215448
0.527930, -0.120730, 0.208499
0.561793, -0.141452, 0.467218
0.549028, -0.073176, 0.495910
0.573917, -0.179897, 0.413993
0.552879, -0.054599, 0.565702
0.476815, -0.004360, 0.590441
0.554372, -0.109537, 0.518403
0.557373, -0.049418, 0.515419
0.546221, -0.084722, 0.554088
0.560909, -0.063182, 0.551554
0.550870, -0.137688, 0.545982
0.347077, 0.002076, 0.664703
0.549581, -0.106814, 0.557677
0.488063, -0.001018, 0.567876
0.532584, -0.083885, 0.592090
0.478016, -0.047427, 0.608319
0.570547, -0.111275, 0.409802
0.457071, 0.018616, 0.615612
0.498541, -0.026262, 0.505475
0.549268, -0.107435, 0.513786
0.454978, 0.020282, 0.623577
0.481820, 0.000812, 0.575745
0.350808, 0.013480, 0.652714
0.487188, -0.059352, 0.604728
0.291130, -0.007110, 0.702082
0.273817, 0.038155, 0.672872
0.502920, -0.021424, 0.515743
0.514969, -0.022502, 0.529781
0.569943, -0.159797, 0.513943
0.496011, 0.001427, 0.460067
0.567328, -0.087861, 0.471819
0.516275, -0.048267, 0.490571
0.551454, -0.041125, 0.513906
0.560004, -0.154462, 0.537702
0.565321, -0.144265, 0.510705
0.569227, -0.141634, 0.451700
0.561660, -0.094570, 0.487200
0.486842, 0.000059, 0.568145
0.544002, -0.084292, 0.497226
0.567829, -0.138790, 0.457668
0.546308, -0.030134, 0.584295
0.541593, -0.045366, 0.576051
0.564692, -0.096086, 0.451843
0.566421, -0.099158, 0.444458
0.541184, -0.037431, 0.561811
0.479679, -0.061965, 0.596658
0.480799, -0.000774, 0.589120
0.492283, -0.014840, 0.534662
0.559478, -0.039466, 0.558146
0.465541, -0.032274, 0.461421
0.566982, -0.161755, 0.485925
0.528751, -0.051661, 0.580033
0.562867, -0.047428, 0.549211
0.531745, -0.109291, 0.567812
0.481894, -0.002393, 0.567491
0.542112, -0.056402, 0.579531
0.500633, 0.001171, 0.616840
0.475690, -0.035870, 0.605446
0.538169, -0.048272, 0.589290
0.547004, -0.138624, 0.513543
0.560652, -0.118958, 0.460117
0.471162, -0.004004, 0.562160
0.542886, -0.052609, 0.469296
0.558140, -0.133355, 0.625364
0.489763, -0.018496, 0.527000
0.534168, -0.077344, 0.588240
0.478812, -0.056102, 0.595689
0.487246, -0.000275, 0.567922
0.465999, -0.010796, 0.614815
0.507415, -0.119508, 0.612684
0.516517, -0.047342, 0.498744
0.550355, -0.105199, 0.587165
0.367877, 0.046206, 0.547484
0.539468, -0.109690, 0.589450
0.471706, -0.004591, 0.581224
0.500125, 0.001656, 0.459142
0.475983, -0.049450, 0.591789
0.536811, -0.103452, 0.578695
0.562280, -0.096424, 0.491527
0.559465, -0.082012, 0.489236
0.555855, -0.067362, 0.597140
0.558968, -0.091657, 0.488280
0.497661, -0.031258, 0.471215
0.476382, -0.055794, 0.595868
0.559092, -0.048160, 0.529056
0.547225, -0.099068, 0.584095
0.556647, -0.069020, 0.525700
0.530142, -0.053619, 0.496198
0.526729, -0.082150, 0.589913
0.542738, -0.084785, 0.583700
0.544040, -0.057308, 0.562377
0.535278, -0.080914, 0.582917
0.537355, -0.080706, 0.579230
0.328355, 0.032877, 0.641354
0.554445, -0.087677, 0.488501
0.556775, -0.048017, 0.513602
0.475631, -0.048528, 0.592582
0.530864, -0.066882, 0.594756
0.561364, -0.128338, 0.463147
0.533670, -0.022962, 0.550765
0.473573, -0.035141, 0.604741
0.552562, -0.114181, 0.538603
0.473756, -0.036687, 0.643267
0.480954, -0.006201, 0.576953
0.561394, -0.086781, 0.487436
0.562032, -0.145944, 0.513400
0.570070, -0.149577, 0.445876
0.477995, -0.061697, 0.597424
0.550673, -0.120885, 0.581378
0.539543, -0.057889, 0.576845
0.286809, -0.006085, 0.697329
0.542551, -0.053633, 0.551082
0.502169, -0.014271, 0.553903
0.549966, -0.111848, 0.564781
0.547055, -0.099429, 0.533325
0.528081, -0.094166, 0.542450
0.560268, -0.062892, 0.537032
0.542362, -0.086945, 0.548598
0.488352, -0.072241, 0.542156
0.543354, -0.043723, 0.599459
0.479228, -0.037215, 0.606604
0.489015, -0.011312, 0.552127
0.528162, -0.040281, 0.595803
0.301463, 0.027036, 0.664804
0.571019, -0.149561, 0.444533
0.578787, -0.167061, 0.446252
0.578943, -0.078102, 0.419983
0.470819, -0.040030, 0.626930
0.552289, -0.113152, 0.564610
0.475900, -0.060665, 0.596602
0.534214, -0.041506, 0.581457
0.354955, 0.036290, 0.648558
0.313629, 0.034103, 0.649103
0.516857, -0.048137, 0.490811
0.555187, -0.056469, 0.467594
0.567378, -0.143183, 0.462501
0.550298, -0.081903, 0.494714
0.466982, -0.044367, 0.606707
0.514819, -0.046191, 0.499022
0.315660, -0.023615, 0.693418
0.473069, 0.052131, 0.613461
0.566837, -0.137894, 0.450723
0.480303, 0.068432, 0.621561
0.554718, -0.131155, 0.624024
0.499638, -0.010727, 0.546577
0.543492, -0.030584, 0.583510
0.604084, -0.088906, 0.484407
0.546216, -0.053369, 0.469307
0.563275, -0.149943, 0.480657
0.485606, 0.009128, 0.583930
0.532142, -0.040728, 0.580723
0.476842, 0.002348, 0.574025
0.458401, 0.048032, 0.584305
0.435400, 0.008864, 0.460114
0.479111, 0.000589, 0.599534
0.474086, -0.025198, 0.598212
0.499382, 0.000416, 0.452740
0.487974, -0.013811, 0.538674
0.539476, -0.041517, 0.586959
0.551428, -0.102514, 0.533741
0.466731, 0.007374, 0.639971
0.544876, -0.051526, 0.560873
0.349952, 0.017296, 0.652026
0.356192, 0.001611, 0.684201
0.538330, -0.082027, 0.576786
0.557934, -0.109202, 0.561841
0.560910, -0.063165, 0.551309
0.546183, -0.106712, 0.565031
0.493668, 0.037848, 0.554691
0.546906, -0.109734, 0.569706
0.489319, 0.044790, 0.559829
0.352993, 0.006591, 0.681893
0.934300, 0.051281, 0.673395
0.551374, -0.102156, 0.567476
0.569670, -0.109188, 0.416338
0.538353, -0.097618, 0.506882
0.520746, -0.043888, 0.485175
0.555446, -0.069142, 0.517566
0.545964, -0.053401, 0.588536
0.548102, -0.053363, 0.584999
0.550666, -0.107593, 0.536232
0.628393, -0.133169, 0.067043
0.519134, -0.095239, 0.299529
0.577854, -0.217768, 0.243778
0.505346, -0.049239, 0.387640
0.560944, -0.101528, 0.401699
0.556958, -0.133919, 0.411621
0.560905, -0.100225, 0.495066
0.525857, -0.045768, 0.483058
0.451721, -0.054301, 0.589628
0.446618, -0.014672, 0.574562
0.558526, -0.100234, 0.499666
0.539868, -0.083103, 0.588385
0.559452, 0.013505, 0.646104
0.582947, -0.193456, 0.295928
0.602084, -0.156838, 0.373473
0.539110, -0.057185, 0.577251
0.479934, -0.040759, 0.600260
0.475249, -0.015245, 0.579349
0.544949, -0.052901, 0.564018
0.552305, -0.133198, 0.546685
0.563320, -0.120199, 0.586187
0.467858, -0.025976, 0.596742
0.486236, -0.030183, 0.598496
0.542491, -0.050822, 0.583420
0.519497, -0.053846, 0.283520
0.514855, -0.084138, 0.335653
0.515403, -0.073533, 0.353440
0.975461, 0.052349, 0.681704
0.551892, -0.138272, 0.546043
0.577515, -0.184112, 0.318191
0.508090, -0.065832, 0.394488
0.514567, -0.073089, 0.388052
0.515104, -0.071975, 0.392069
0.582479, -0.185360, 0.322372
0.546757, -0.114367, 0.352861
0.584863, -0.193485, 0.297281
0.520088, -0.054710, 0.487558
0.505589, -0.045245, 0.487896
0.530683, -0.095130, 0.370293
0.496881, -0.031641, 0.471422
0.481263, -0.056531, 0.615009
0.567676, -0.101509, 0.437597
0.560404, -0.086358, 0.451775
0.559025, -0.092224, 0.488165
0.471978, -0.024262, 0.638706
0.491430, -0.004392, 0.578559
0.556386, -0.085217, 0.491991
0.478345, -0.028418, 0.594762
0.537213, -0.081795, 0.588238
0.333072, 0.007868, 0.650766
0.512907, -0.054093, 0.288869
0.538561, -0.084570, 0.203265
0.488051, 0.013277, 0.600618
0.467532, -0.060313, 0.599859
0.563839, -0.128647, 0.458693
0.565743, -0.135534, 0.443952
0.567451, -0.103713, 0.430400
0.578562, -0.082581, 0.423393
0.468167, -0.047304, 0.626894
0.549765, -0.110275, 0.570176
0.597581, -0.133047, 0.494064
0.250383, -0.414419, -0.458002
0.496203, -0.032087, 0.470965
0.548118, -0.016652, 0.416523
0.498566, -0.039254, 0.456870
0.553404, -0.083042, 0.447171
0.505585, -0.044003, 0.452721
0.524767, 0.000501, 0.447934
0.075659, -0.460197, -0.512109
0.407518, -0.371657, -0.078921
0.524870, -0.105715, 0.250283
0.505676, -0.076637, 0.608155
0.573841, -0.098097, 0.483552
0.488429, -0.014444, 0.535459
0.490767, 0.009598, 0.477068
0.489024, 0.004683, 0.460942
-0.771821, 0.022047, -0.278753
0.390879, -0.437630, -0.121147
0.486029, 0.001598, 0.452776
0.548509, -0.115282, 0.570925
-0.095985, -0.155367, -0.454505
0.578748, -0.190160, 0.314455
0.519526, -0.047039, 0.489870
0.566176, -0.099102, 0.444781
0.482750, -0.006515, 0.577914
0.543805, -0.053589, 0.585298
0.480713, -0.005494, 0.591693
0.534046, -0.094109, 0.507947
0.487425, -0.006104, 0.570158
0.514319, -0.041442, 0.486068
0.556338, -0.110885, 0.518279
0.571153, -0.142843, 0.451816
0.565760, -0.093476, 0.519295
0.485161, 0.015890, 0.563171
0.491429, -0.053548, 0.595191
0.565605, -0.081099, 0.502749
0.479444, 0.011183, 0.571365
0.525771, -0.053884, 0.496599
-0.707859, -0.396642, -0.567264
-0.278979, -0.209613, -0.332039
-0.138987, -0.361665, -0.395483
0.564933, -0.098519, 0.491944
0.571956, -0.110893, 0.407210
0.474707, -0.032230, 0.440176
0.509598, -0.154076, 0.171132
0.366611, -0.375620, -0.137111
0.353277, -0.511123, -0.468244
0.488795, -0.006240, 0.570633
0.437517, 0.018975, 0.489244
0.527020, -0.118904, 0.211762
0.491930, -0.072030, 0.332473
0.589018, -0.187704, 0.265538
0.594997, -0.185720, 0.245148
0.518969, -0.048560, 0.491210
0.553286, -0.111120, 0.506861
0.503592, -0.020471, 0.526882
0.546123, -0.054753, 0.585050
0.469973, 0.016734, 0.568061
0.488075, -0.017585, 0.523551
0.547034, -0.056653, 0.535015
0.569613, -0.100508, 0.440960
0.572056, -0.268617, -0.043864
0.530309, -0.190374, 0.103372
0.409425, -0.384020, -0.115336
0.400491, -0.122791, -0.055275
0.158988, -0.466700, -0.484850
0.516335, -0.040191, 0.501606
0.518720, -0.047897, 0.498108
0.513916, -0.070687, 0.361287
0.476847, 0.015023, 0.596871
0.568153, -0.089265, 0.471259
0.485181, -0.010157, 0.549905
0.558405, -0.137930, 0.464412
0.547901, -0.099673, 0.584006
0.539022, -0.053969, 0.248628
0.583336, -0.212769, 0.260975
0.530739, -0.081011, 0.642139
0.561664, -0.143844, 0.446333
0.520313, -0.047555, 0.489264
0.525071, -0.054761, 0.487860
0.464017, -0.050011, 0.346421
0.648252, -0.208943, -0.311883
0.433102, 0.018035, 0.483466
0.534829, -0.052965, 0.577410
0.572971, -0.180081, 0.319433
0.581792, -0.192882, 0.270651
0.694753, -0.051013, 0.361654
0.567886, -0.099277, 0.438332
0.588195, -0.126557, 0.399015
0.506957, -0.050936, 0.429371
0.550868, -0.068353, 0.511675
0.706468, 0.045437, 0.579670
0.461454, -0.058401, 0.329284
0.415272, -0.246060, -0.115782
0.364219, -0.442338, -0.268978
0.370820, -0.394632, -0.196175
0.378087, -0.351579, -0.086288
0.422371, -0.156644, -0.035490
0.543248, -0.097401, 0.573571
0.486553, 0.029814, 0.530636
0.551309, -0.087848, 0.553944
0.491506, -0.015907, 0.530297
0.516083, -0.044417, 0.504887
0.489971, -0.011353, 0.547429
0.519696, -0.124384, -0.106195
0.450271, -0.174492, -0.048192
0.553777, -0.063178, 0.261991
0.433366, -0.211672, -0.148958
0.382484, 0.043732, 0.544534
0.543579, -0.063453, 0.517112
0.495372, -0.031195, 0.496360
0.588429, -0.123891, 0.422534
0.563883, -0.098050, 0.433833
0.481926, 0.005361, 0.566683
0.568238, -0.099684, 0.444466
1.181140, -0.110423, 0.326751
0.156010, -0.525911, -0.487291
0.139336, -0.527873, -0.462476
0.545432, -0.061571, 0.578633
0.411269, -0.270177, -0.180588
0.560173, -0.098200, 0.424995
0.559680, -0.087881, 0.444027
0.468798, -0.043805, 0.637559
0.513872, -0.051213, 0.487111
0.587797, -0.150886, 0.371169
0.506801, -0.061318, 0.377029
0.530268, -0.114168, 0.197017
0.499689, -0.042523, 0.386998
0.397545, -0.410861, -0.215816
0.530727, -0.119916, 0.237756
0.500072, -0.024605, 0.600399
0.563630, -0.082321, 0.483740
0.539072, -0.058187, 0.575941
0.571292, -0.426174, -0.089344
0.557393, -0.110057, 0.517502
0.508726, -0.042247, 0.498534
0.571459, -0.103787, 0.436377
0.588271, -0.128985, 0.419626
0.515638, -0.046177, 0.495705
0.560519, -0.090832, 0.488543
0.516317, -0.048431, 0.490469
0.504879, -0.000070, 0.456853
0.480713, -0.183268, -0.240612
0.569114, -0.293557, -0.196565
0.597301, -0.315298, -0.276310
0.486718, -0.232542, -0.195306
-0.230276, -0.174040, -0.380275
-0.326662, -0.299866, -0.393398
-0.099420, -0.290710, -0.452402
-0.187503, -0.250913, -0.467690
0.572674, -0.199370, 0.251299
0.569445, -0.148282, 0.366947
0.559542, -0.091497, 0.486926
0.488020, -0.000287, 0.568175
0.525129, -0.033445, 0.580775
0.506826, -0.042408, 0.315729
0.460779, -0.196273, -0.285824
0.608972, -0.338763, -0.009080
0.482753, -0.070377, 0.325022
-0.047597, -0.411080, -0.500179
-0.068656, -0.209043, -0.428456
-0.103038, -0.334029, -0.442763
0.513535, -0.079139, 0.354844
0.509947, -0.077306, 0.347777
0.609785, -0.358866, -0.347972
0.507327, -0.029349, 0.355025
0.490921, -0.019334, 0.526296
0.490216, -0.011899, 0.550468
0.526506, -0.040377, 0.515321
0.568365, -0.106213, 0.423276
0.585664, -0.090738, 0.416635
0.540830, -0.076230, 0.177744
0.435222, -0.048041, 0.340049
0.512077, -0.038275, 0.328623
0.506990, -0.034786, 0.338151
0.552295, -0.107934, 0.367825
0.579717, -0.182929, 0.330395
0.517181, 0.005153, 0.471332
0.449871, 0.006889, 0.458286
0.472771, -0.048292, 0.598165
0.510714, -0.035552, 0.505207
-0.690501, -0.322630, -0.480138
-0.043316, -0.201714, -0.451328
-0.374741, -0.428102, -0.555324
0.482556, -0.003694, 0.562466
0.552148, -0.051890, 0.583019
0.532535, -0.089635, 0.602009
0.485402, -0.075545, 0.317326
0.487496, -0.013654, 0.538137
0.533159, -0.074935, 0.420007
0.565802, -0.102767, 0.419893
-0.023666, -0.419971, -0.493701
0.542695, -0.082653, 0.496427
-0.123817, -0.177532, -0.279162
0.561891, -0.132744, 0.440831
0.543722, 0.055372, 0.599837
0.476146, -0.050293, 0.626770
0.479571, -0.057330, 0.594897
0.559044, -0.080824, 0.483570
0.482677, -0.051698, 0.594171
0.524830, -0.189471, 0.132272
0.461276, -0.199276, -0.296419
0.417302, -0.427096, -0.176103
0.393996, -0.221235, -0.116875
0.578526, -0.125680, 0.437896
0.489478, 0.014502, 0.484986
0.484403, 0.021167, 0.567707
0.563459, -0.143646, 0.434175
0.531888, -0.073162, 0.594166
0.550723, -0.106977, 0.557432
0.567461, -0.100643, 0.429460
0.541724, -0.084241, 0.588728
0.578240, -0.087476, 0.426921
0.543430, -0.050839, 0.560744
0.537408, -0.050969, 0.586932
-0.146323, -0.127949, -0.403670
0.356415, -0.476227, -0.419121
0.571827, -0.101196, 0.446099
0.550868, -0.046416, 0.547135
0.496662, -0.023167, 0.469078
0.490363, 0.016331, 0.577065
0.549598, -0.071328, 0.491522
0.465795, -0.062106, 0.595372
0.301842, 0.031857, 0.490948
0.518230, -0.076045, 0.383717
0.578395, -0.104243, 0.450697
0.609631, -0.159982, 0.323206
0.634907, -0.152846, 0.416681
0.570412, -0.161993, 0.384844
0.553353, -0.138299, 0.402439
0.508331, -0.063215, 0.404436
0.554198, -0.077891, 0.490313
0.439998, -0.414561, -0.271821
0.477586, -0.205659, -0.323491
0.162033, -0.452906, -0.493760
-0.026563, -0.379260, -0.534815
0.576824, -0.185502, 0.272944
0.537193, -0.067279, 0.086930
0.459502, -0.131738, 0.165978
0.564603, -0.133308, 0.296386
0.517014, -0.077916, 0.371188
0.483789, -0.047246, 0.604094
0.480232, -0.017173, 0.581136
0.545387, -0.052305, 0.584786
0.530282, -0.062191, 0.440086
0.585095, -0.134933, 0.380445
0.576759, -0.118123, 0.404539
0.565546, -0.098465, 0.436044
0.573379, -0.121570, 0.419259
0.525617, -0.056338, 0.497031
0.555682, -0.074460, 0.493064
0.574120, -0.104434, 0.515335
0.575374, -0.117098, 0.461511
-0.211291, -0.246616, -0.426039
0.344986, -0.202306, -0.082704
-0.186261, -0.435869, -0.407084
-0.120956, -0.256910, -0.437301
-0.941869, -0.178857, 0.582447
-1.005756, -0.222638, 0.617766
-0.831363, -0.142108, 0.458181
-0.979766, -0.198572, 0.527404
0.493389, -0.546991, -0.349427
0.516680, -0.091646, 0.283473
0.555399, -0.091381, 0.579218
0.547118, -0.052822, 0.589639
0.549368, -0.071166, 0.491512
0.519185, -0.036642, 0.593648
0.564078, -0.091217, 0.459651
0.574762, -0.177825, 0.332603
0.509469, -0.052400, 0.429652
0.545949, -0.052984, 0.543220
0.543539, -0.107481, 0.495348
0.566529, -0.136616, 0.445074
0.542945, -0.059814, 0.576821
0.586609, -0.134965, 0.377381
0.521064, -0.081455, 0.370253
0.581495, -0.115924, 0.416951
0.578914, -0.098763, 0.506603
0.571768, -0.099406, 0.452786
0.568976, -0.103989, 0.426610
0.516376, -0.145461, 0.081512
0.564003, -0.103825, 0.411347
0.564953, -0.093766, 0.532127
0.477919, -0.004682, 0.576853
0.220257, -0.532696, -0.476997
0.411875, -0.123284, -0.129715
0.422599, -0.172738, -0.227495
0.576184, -0.111800, 0.425335
0.477792, -0.011854, 0.617884
-0.250992, -0.234504, -0.528107
-0.443417, -0.336216, -0.281232
0.494089, -0.030001, 0.473198
0.487294, 0.015526, 0.569675
0.545638, -0.080846, 0.467767
0.566049, -0.139802, 0.429499
0.579961, -0.082881, 0.406941
0.475488, -0.027356, 0.593509
0.553102, -0.076315, 0.496173
0.565966, -0.134927, 0.440179
0.342084, -0.252394, -0.166567
0.513990, -0.035256, 0.513653
0.558319, -0.061678, 0.551584
0.538780, -0.053647, 0.560953
0.570607, -0.107425, 0.427706
0.508185, -0.019354, 0.560361
0.474588, -0.018327, 0.619585
0.548645, -0.054720, 0.564948
0.566313, -0.143072, 0.415263
0.568572, -0.102060, 0.442682
0.579780, -0.123730, 0.455868
0.419295, 0.035389, 0.530918
0.562546, -0.089787, 0.485887
0.475298, -0.016087, 0.580087
0.493005, -0.004682, 0.557673
0.550198, -0.055665, 0.554334
0.490761, -0.015453, 0.535325
0.556102, -0.085473, 0.463760
0.551160, -0.061674, 0.589922
0.477446, 0.041505, 0.560289
0.557773, -0.088310, 0.455860
0.580791, -0.128837, 0.433716
0.478055, -0.015666, 0.581812
0.475853, -0.049615, 0.591365
0.465435, 0.013302, 0.636979
0.489937, -0.079299, 0.305676
0.513997, -0.043728, 0.499384
0.547649, -0.073123, 0.496772
0.549823, -0.070071, 0.494608
0.476096, 0.005156, 0.610072
0.566497, -0.045618, 0.544308
0.561033, -0.044074, 0.543945
0.510584, -0.050013, 0.486885
0.567159, -0.097709, 0.436860
0.515333, -0.080505, 0.355091
0.511634, -0.048306, 0.371627
0.516836, -0.056530, 0.365141
0.520048, -0.041124, 0.321629
0.509924, -0.054782, 0.421551
0.029562, -0.359563, -0.432212
0.537332, -0.086036, 0.189366
0.387288, -0.346467, -0.341277
0.404906, -0.253534, -0.118926
0.472009, -0.207312, -0.121524
0.487839, -0.210437, -0.270478
0.583585, -0.088781, 0.425677
0.563988, -0.134110, 0.439840
0.506930, -0.032219, 0.590990
0.568197, -0.101657, 0.437177
0.528921, -0.024073, 0.577819
0.481850, 0.001160, 0.581123
0.557481, -0.079755, 0.416759
0.535194, -0.040722, 0.583932
0.487052, 0.000076, 0.568350
0.477770, -0.005081, 0.576217
0.547038, -0.052820, 0.584370
0.543725, -0.056682, 0.561735
0.520042, -0.045841, 0.503920
0.436301, -0.012584, 0.368434
0.756511, -0.208662, -0.136306
0.545081, -0.055862, 0.566024
0.510527, -0.038013, 0.501726
0.584943, -0.044173, 0.626461
0.537076, 0.003267, 0.616050
0.571633, -0.147513, 0.431407
0.485799, -0.001893, 0.569178
0.497029, 0.020051, 0.600067
0.514545, -0.047277, 0.491260
0.560921, -0.043972, 0.564863
0.561361, -0.105511, 0.402295
0.488975, -0.002532, 0.569384
0.517264, -0.090546, 0.288681
0.571360, -0.183125, 0.257689
0.377033, -0.403605, -0.192175
0.511672, -0.050059, 0.486450
0.564693, -0.090395, 0.457846
0.629646, -0.018130, 0.432682
0.480629, -0.004708, 0.561477
0.511197, -0.041779, 0.498708
0.560927, -0.088728, 0.443054
0.552850, -0.044310, 0.516707
0.482655, -0.038111, 0.607072
0.484715, 0.004606, 0.566900
0.488551, -0.014489, 0.597559
0.556624, -0.092813, 0.453564
0.482539, -0.000867, 0.568328
0.564640, -0.092358, 0.465615
0.513341, 0.041338, 0.562909
0.571810, -0.206866, 0.251148
0.508098, -0.057910, 0.379594
0.512276, -0.066640, 0.073955
0.578792, -0.176765, 0.276120
0.455623, 0.000953, 0.435565
0.485997, -0.012446, 0.579666
0.514207, -0.086274, 0.323497
0.534228, -0.183346, 0.188218
0.575616, -0.085905, 0.428205
0.497429, 0.041933, 0.561657
0.570417, -0.109489, 0.416063
0.477670, -0.028410, 0.594901
0.570058, -0.110917, 0.410153
0.516608, -0.044216, 0.490683
0.485228, -0.164126, -0.204794
0.516836, -0.076033, 0.293087
-0.196731, -0.361022, -0.470118
-0.298236, -0.273969, -0.583446
0.501899, -0.039701, 0.329517
0.503802, -0.047297, 0.381916
0.468606, -0.015399, 0.588920
0.496922, 0.000112, 0.594765
0.414586, -0.089953, -0.044586
0.578109, -0.180504, 0.312331
0.560047, -0.156015, 0.336070
0.520314, -0.028106, 0.513880
0.509340, -0.049504, 0.486731
0.560444, -0.093119, 0.452710
0.517057, -0.186650, 0.231057
-0.422941, -0.436887, -0.556164
-0.168468, -0.133164, -0.442609
0.581980, 0.009487, 0.505081
0.555497, -0.087155, 0.444004
0.549455, -0.032994, 0.570649
0.555694, -0.122610, 0.467558
0.479673, 0.010908, 0.564150
0.568320, 0.039795, 0.611640
0.511668, -0.031691, 0.505472
0.559590, -0.079219, 0.429513
0.489825, -0.055725, 0.617086
0.571982, -0.084967, 0.421617
0.513830, -0.023312, 0.549797
